ply
format ascii 1.0
comment PCL generated
element vertex 1362
property float x
property float y
property float z
property uchar red
property uchar green
property uchar blue
element face 0
property list uchar int vertex_index
end_header
130.21 -33.806 361.47 0 255 0     
134.41 -33.806 361.47 0 255 0     
146.38 -33.821 361.62 0 255 0     
155.48 -33.821 361.62 0 255 0     
156.18 -33.821 361.62 0 255 0     
163.42 -34.162 365.27 0 255 0     
168.55 -34.343 367.21 0 255 0     
182.57 -34.711 371.14 0 255 0     
187.07 -34.48 368.67 0 255 0     
199.12 -34.465 368.51 0 255 0     
210.67 -34.603 369.98 0 255 0     
217.77 -34.48 368.67 0 255 0     
227.76 -34.588 369.82 0 255 0     
232.27 -34.618 370.15 0 255 0     
236.06 -34.649 370.48 0 255 0     
239.3 -34.496 368.84 0 255 0     
240.41 -34.45 368.35 0 255 0     
247.16 -34.496 368.84 0 255 0     
248.9 -33.954 363.04 0 255 0     
251.38 -33.909 362.57 0 255 0     
251.48 -32.823 350.95 0 255 0     
-123.9 -33.484 365.59 0 255 0     
-123.14 -33.47 365.43 0 255 0     
-113.09 -33.426 364.95 0 255 0     
-111.67 -33.426 364.95 0 255 0     
-110.92 -33.411 364.79 0 255 0     
-109.55 -33.426 364.95 0 255 0     
-99.612 -33.411 364.79 0 255 0     
-95.29 -33.382 364.47 0 255 0     
-87.087 -32.949 359.75 0 255 0     
-84.227 -32.92 359.44 0 255 0     
-77.929 -32.906 359.28 0 255 0     
-75.145 -32.906 359.28 0 255 0     
-70.214 -32.878 358.97 0 255 0     
-65.404 -32.906 359.28 0 255 0     
-62.621 -32.906 359.28 0 255 0     
-57.7 -32.878 358.97 0 255 0     
-54.99 -32.92 359.44 0 255 0     
-46.617 -32.906 359.28 0 255 0     
-40.372 -32.92 359.44 0 255 0     
-34.107 -32.92 359.44 0 255 0     
-14.615 -32.92 359.44 0 255 0     
-13.919 -32.92 359.44 0 255 0     
-12.527 -32.92 359.44 0 255 0     
-8.3468 -32.906 359.28 0 255 0     
-6.2621 -32.92 359.44 0 255 0     
-2.7815 -32.92 359.44 0 255 0     
2.0914 -32.92 359.44 0 255 0     
2.7875 -32.92 359.44 0 255 0     
6.2681 -32.92 359.44 0 255 0     
13.235 -32.935 359.59 0 255 0     
13.925 -32.92 359.44 0 255 0     
17.406 -32.92 359.44 0 255 0     
20.199 -32.935 359.59 0 255 0     
26.467 -32.935 359.59 0 255 0     
36.232 -32.949 359.75 0 255 0     
36.929 -32.949 359.75 0 255 0     
46.703 -32.963 359.9 0 255 0     
53.674 -32.963 359.9 0 255 0     
56.535 -33.006 360.37 0 255 0     
58.629 -33.006 360.37 0 255 0     
74.908 -33.106 361.47 0 255 0     
81.873 -33.092 361.31 0 255 0     
104.96 -33.092 361.31 0 255 0     
105.76 -33.121 361.62 0 255 0     
117.61 -33.106 361.47 0 255 0     
121.86 -33.121 361.62 0 255 0     
128.81 -33.106 361.47 0 255 0     
129.51 -33.106 361.47 0 255 0     
147.08 -33.121 361.62 0 255 0     
152.75 -33.135 361.78 0 255 0     
154.08 -33.121 361.62 0 255 0     
156.18 -33.121 361.62 0 255 0     
163.35 -33.44 365.11 0 255 0     
164.63 -33.558 366.4 0 255 0     
182.02 -34.023 371.47 0 255 0     
183.91 -33.841 369.49 0 255 0     
195.38 -33.721 368.18 0 255 0     
199.03 -33.736 368.35 0 255 0     
211.29 -33.871 369.82 0 255 0     
213.49 -33.766 368.67 0 255 0     
215.63 -33.766 368.67 0 255 0     
216.25 -33.751 368.51 0 255 0     
227.76 -33.871 369.82 0 255 0     
231.76 -33.932 370.48 0 255 0     
237.6 -33.947 370.64 0 255 0     
241.12 -33.736 368.35 0 255 0     
249.6 -33.251 363.04 0 255 0     
249.98 -32.389 353.63 0 255 0     
-130.28 -32.776 365.59 0 255 0     
-118.69 -32.705 364.79 0 255 0     
-117.98 -32.705 364.79 0 255 0     
-110.92 -32.705 364.79 0 255 0     
-107.38 -32.705 364.79 0 255 0     
-105.92 -32.69 364.63 0 255 0     
-105.22 -32.69 364.63 0 255 0     
-104.56 -32.705 364.79 0 255 0     
-102.39 -32.69 364.63 0 255 0     
-96.038 -32.69 364.63 0 255 0     
-79.981 -32.196 359.13 0 255 0     
-77.199 -32.196 359.13 0 255 0     
-75.145 -32.21 359.28 0 255 0     
-71.604 -32.183 358.97 0 255 0     
-66.795 -32.21 359.28 0 255 0     
-60.533 -32.21 359.28 0 255 0     
-52.879 -32.21 359.28 0 255 0     
-45.921 -32.21 359.28 0 255 0     
-35.484 -32.21 359.28 0 255 0     
-26.449 -32.224 359.44 0 255 0     
-24.361 -32.224 359.44 0 255 0     
-4.1737 -32.224 359.44 0 255 0     
11.141 -32.224 359.44 0 255 0     
17.406 -32.224 359.44 0 255 0     
22.975 -32.224 359.44 0 255 0     
27.152 -32.224 359.44 0 255 0     
30.659 -32.252 359.75 0 255 0     
42.503 -32.252 359.75 0 255 0     
50.908 -32.28 360.06 0 255 0     
55.837 -32.308 360.37 0 255 0     
64.995 -32.35 360.84 0 255 0     
66.392 -32.35 360.84 0 255 0     
77.675 -32.392 361.31 0 255 0     
80.474 -32.392 361.31 0 255 0     
94.428 -32.378 361.15 0 255 0     
97.925 -32.378 361.15 0 255 0     
112.71 -32.406 361.47 0 255 0     
114.81 -32.406 361.47 0 255 0     
117.61 -32.406 361.47 0 255 0     
123.21 -32.406 361.47 0 255 0     
128.87 -32.42 361.62 0 255 0     
130.21 -32.406 361.47 0 255 0     
135.11 -32.406 361.47 0 255 0     
137.97 -32.42 361.62 0 255 0     
140.71 -32.406 361.47 0 255 0     
144.28 -32.42 361.62 0 255 0     
153.38 -32.42 361.62 0 255 0     
154.08 -32.42 361.62 0 255 0     
159.05 -32.434 361.78 0 255 0     
163.27 -32.719 364.95 0 255 0     
177.24 -32.95 367.53 0 255 0     
186.36 -33.052 368.67 0 255 0     
200.91 -33.096 369.16 0 255 0     
205.03 -33.185 370.15 0 255 0     
207.2 -33.303 371.47 0 255 0     
208.45 -33.273 371.14 0 255 0     
212.97 -33.082 369 0 255 0     
223.49 -33.052 368.67 0 255 0     
233.6 -33.17 369.98 0 255 0     
235.85 -33.185 370.15 0 255 0     
237.39 -33.199 370.31 0 255 0     
251.29 -31.61 352.58 0 255 0     
251.38 -31.45 350.8 0 255 0     
-132.88 -32.012 364.95 0 255 0     
-129.63 -32.082 365.76 0 255 0     
-128.1 -32.054 365.43 0 255 0     
-123.14 -32.054 365.43 0 255 0     
-113.84 -32.026 365.11 0 255 0     
-88.634 -31.61 360.37 0 255 0     
-83.531 -31.528 359.44 0 255 0     
-81.408 -31.515 359.28 0 255 0     
-79.286 -31.501 359.13 0 255 0     
-67.491 -31.515 359.28 0 255 0     
-61.229 -31.515 359.28 0 255 0     
-45.225 -31.515 359.28 0 255 0     
-44.529 -31.515 359.28 0 255 0     
-37.571 -31.515 359.28 0 255 0     
-19.488 -31.528 359.44 0 255 0     
-13.913 -31.515 359.28 0 255 0     
-9.7426 -31.528 359.44 0 255 0     
-2.0853 -31.528 359.44 0 255 0     
6.9642 -31.528 359.44 0 255 0     
18.11 -31.542 359.59 0 255 0     
23.681 -31.542 359.59 0 255 0     
36.217 -31.542 359.59 0 255 0     
55.837 -31.61 360.37 0 255 0     
57.956 -31.624 360.53 0 255 0     
59.352 -31.624 360.53 0 255 0     
60.723 -31.61 360.37 0 255 0     
71.983 -31.651 360.84 0 255 0     
104.96 -31.692 361.31 0 255 0     
112.71 -31.706 361.47 0 255 0     
118.31 -31.706 361.47 0 255 0     
123.91 -31.706 361.47 0 255 0     
136.51 -31.706 361.47 0 255 0     
148.48 -31.72 361.62 0 255 0     
156.18 -31.72 361.62 0 255 0     
172.89 -32.224 367.37 0 255 0     
194.67 -32.295 368.18 0 255 0     
196.72 -32.281 368.02 0 255 0     
197.43 -32.281 368.02 0 255 0     
198.32 -32.31 368.35 0 255 0     
206.83 -32.526 370.81 0 255 0     
207.82 -32.569 371.3 0 255 0     
216.25 -32.324 368.51 0 255 0     
220.73 -32.353 368.84 0 255 0     
222.67 -32.324 368.51 0 255 0     
224.2 -32.338 368.67 0 255 0     
227.86 -32.453 369.98 0 255 0     
231.04 -32.497 370.48 0 255 0     
234.1 -32.424 369.65 0 255 0     
241.34 -32.338 368.67 0 255 0     
248.53 -32.439 369.82 0 255 0     
249.25 -32.439 369.82 0 255 0     
-123.85 -31.347 365.43 0 255 0     
-116.57 -31.292 372.79 0 255 0     
-110.96 -31.305 364.95 0 255 0     
-110.26 -31.305 364.95 0 255 0     
-98.906 -31.292 364.79 0 255 0     
-84.227 -30.832 359.44 0 255 0     
-74.449 -30.819 367.28 0 255 0     
-73.754 -30.819 359.28 0 255 0     
-73.058 -30.819 359.28 0 255 0     
-69.519 -30.792 358.97 0 255 0     
-57.054 -30.819 359.28 0 255 0     
-56.358 -30.819 359.28 0 255 0     
-55.662 -30.819 359.28 0 255 0     
-46.617 -30.819 359.28 0 255 0     
-38.267 -30.819 359.28 0 255 0     
-33.396 -30.819 359.28 0 255 0     
-13.919 -30.832 359.44 0 255 0     
-4.8698 -30.832 359.44 0 255 0     
2.0914 -30.832 359.44 0 255 0     
25.759 -30.832 359.44 0 255 0     
28.544 -30.832 359.44 0 255 0     
30.659 -30.859 359.75 0 255 0     
36.929 -30.859 359.75 0 255 0     
40.413 -30.859 359.75 0 255 0     
43.181 -30.845 359.59 0 255 0     
53.697 -30.885 360.06 0 255 0     
74.176 -30.993 361.31 0 255 0     
83.237 -30.979 361.15 0 255 0     
95.21 -31.006 361.47 0 255 0     
97.967 -30.993 361.31 0 255 0     
112.71 -31.006 361.47 0 255 0     
125.31 -31.006 361.47 0 255 0     
137.21 -31.006 361.47 0 255 0     
149.11 -31.006 361.47 0 255 0     
151.98 -31.02 361.62 0 255 0     
159.96 -31.074 362.25 0 255 0     
168.55 -31.499 367.21 0 255 0     
170.05 -31.513 367.37 0 255 0     
172.18 -31.513 367.37 0 255 0     
175.66 -31.499 367.21 0 255 0     
186.99 -31.61 368.51 0 255 0     
193.87 -31.568 376.02 0 255 0     
200.37 -31.582 368.18 0 255 0     
210.73 -31.638 368.84 0 255 0     
211.44 -31.638 368.84 0 255 0     
233.39 -31.709 369.65 0 255 0     
240.62 -31.624 368.67 0 255 0     
249.71 -31.155 363.2 0 255 0     
-115.91 -30.598 364.95 0 255 0     
-115.26 -30.612 365.11 0 255 0     
-114.55 -30.612 365.11 0 255 0     
-110.26 -30.598 364.95 0 255 0     
-108.09 -30.585 364.79 0 255 0     
-96.786 -30.585 364.79 0 255 0     
-93.673 -30.492 363.68 0 255 0     
-89.759 -30.359 362.1 0 255 0     
-87.125 -30.175 359.9 0 255 0     
-84.997 -30.162 359.75 0 255 0     
-77.895 -30.11 359.13 0 255 0     
-66.795 -30.123 359.28 0 255 0     
-57.75 -30.123 359.28 0 255 0     
-44.529 -30.123 359.28 0 255 0     
-38.963 -30.123 359.28 0 255 0     
-25.046 -30.123 359.28 0 255 0     
-22.969 -30.136 359.44 0 255 0     
-13.223 -30.136 359.44 0 255 0     
-0.69281 -30.123 359.28 0 255 0     
0.0030115 -30.136 359.44 0 255 0     
2.7875 -30.136 359.44 0 255 0     
6.9672 -30.149 359.59 0 255 0     
19.494 -30.136 359.44 0 255 0     
33.431 -30.149 359.59 0 255 0     
36.217 -30.149 359.59 0 255 0     
41.109 -30.162 359.75 0 255 0     
46.703 -30.175 359.9 0 255 0     
52.302 -30.188 360.06 0 255 0     
57.233 -30.214 360.37 0 255 0     
59.327 -30.214 360.37 0 255 0     
63.542 -30.227 360.53 0 255 0     
65.693 -30.254 360.84 0 255 0     
75.51 -30.267 361 0 255 0     
76.209 -30.267 361 0 255 0     
94.428 -30.28 361.15 0 255 0     
100.77 -30.293 361.31 0 255 0     
105.01 -30.306 361.47 0 255 0     
110.61 -30.306 361.47 0 255 0     
118.31 -30.306 361.47 0 255 0     
129.51 -30.306 361.47 0 255 0     
130.21 -30.306 361.47 0 255 0     
139.31 -30.306 361.47 0 255 0     
144.28 -30.319 361.62 0 255 0     
154.15 -30.332 361.78 0 255 0     
154.78 -30.319 361.62 0 255 0     
157.65 -30.332 361.78 0 255 0     
169.34 -30.801 367.37 0 255 0     
174.24 -30.788 367.21 0 255 0     
188.8 -30.842 367.86 0 255 0     
189.51 -30.842 367.86 0 255 0     
190.22 -30.842 367.86 0 255 0     
196.72 -30.856 368.02 0 255 0     
200.11 -30.828 367.69 0 255 0     
205.47 -30.993 369.65 0 255 0     
229.09 -30.993 369.65 0 255 0     
233.39 -30.993 369.65 0 255 0     
234.72 -30.979 369.49 0 255 0     
239.91 -30.91 368.67 0 255 0     
249.2 -31.089 370.81 0 255 0     
249.63 -30.965 369.33 0 255 0     
249.01 -30.452 363.2 0 255 0     
250.57 -30.385 362.41 0 255 0     
248.88 -29.763 354.99 0 255 0     
251.97 -29.561 352.58 0 255 0     
-131.64 -29.931 365.43 0 255 0     
-108.09 -29.879 364.79 0 255 0     
-102.35 -29.852 364.47 0 255 0     
-73.058 -29.427 359.28 0 255 0     
-61.229 -29.427 359.28 0 255 0     
-45.921 -29.427 359.28 0 255 0     
-41.05 -29.427 359.28 0 255 0     
-38.963 -29.427 359.28 0 255 0     
-36.891 -29.44 359.44 0 255 0     
-32.7 -29.427 359.28 0 255 0     
-27.134 -29.427 359.28 0 255 0     
-24.351 -29.427 359.28 0 255 0     
-20.872 -29.427 359.28 0 255 0     
-20.176 -29.427 359.28 0 255 0     
-11.831 -29.44 359.44 0 255 0     
-8.3504 -29.44 359.44 0 255 0     
-0.69281 -29.427 359.28 0 255 0     
3.4836 -29.44 359.44 0 255 0     
7.6636 -29.453 359.59 0 255 0     
18.798 -29.44 359.44 0 255 0     
22.279 -29.44 359.44 0 255 0     
31.342 -29.453 359.59 0 255 0     
34.128 -29.453 359.59 0 255 0     
44.593 -29.465 359.75 0 255 0     
56.535 -29.516 360.37 0 255 0     
59.327 -29.516 360.37 0 255 0     
67.761 -29.542 360.68 0 255 0     
69.188 -29.555 360.84 0 255 0     
69.886 -29.555 360.84 0 255 0     
71.284 -29.555 368.84 0 255 0     
76.209 -29.568 361 0 255 0     
78.34 -29.58 361.15 0 255 0     
92.409 -29.606 361.47 0 255 0     
108.51 -29.606 361.47 0 255 0     
112.01 -29.606 361.47 0 255 0     
114.11 -29.606 361.47 0 255 0     
124.61 -29.606 361.47 0 255 0     
125.31 -29.606 361.47 0 255 0     
126.71 -29.606 361.47 0 255 0     
132.37 -29.619 361.62 0 255 0     
135.17 -29.619 361.62 0 255 0     
137.97 -29.619 361.62 0 255 0     
151.21 -29.606 361.47 0 255 0     
152.68 -29.619 361.62 0 255 0     
164.92 -30.063 367.05 0 255 0     
165.71 -30.076 367.21 0 255 0     
166.34 -30.063 367.05 0 255 0     
181.83 -30.156 368.18 0 255 0     
190.14 -30.116 367.69 0 255 0     
192.9 -30.103 367.53 0 255 0     
214.82 -30.183 368.51 0 255 0     
215.54 -30.183 368.51 0 255 0     
217.77 -30.196 368.67 0 255 0     
223.9 -30.156 368.18 0 255 0     
234 -30.263 369.49 0 255 0     
236.25 -30.277 369.65 0 255 0     
237.66 -30.183 368.51 0 255 0     
239.8 -30.183 368.51 0 255 0     
246.49 -30.304 369.98 0 255 0     
249.92 -30.371 370.81 0 255 0     
249.01 -29.748 363.2 0 255 0     
249.71 -29.748 363.2 0 255 0     
250.09 -29.709 362.73 0 255 0     
253.34 -28.879 352.58 0 255 0     
-133.64 -29.198 365.11 0 255 0     
-120.1 -29.172 364.79 0 255 0     
-115.86 -29.172 364.79 0 255 0     
-103.76 -29.147 364.47 0 255 0     
-93.632 -29.07 363.52 0 255 0     
-89.759 -28.956 362.1 0 255 0     
-88.595 -28.806 360.21 0 255 0     
-79.32 -28.731 359.28 0 255 0     
-72.362 -28.731 359.28 0 255 0     
-71.666 -28.731 359.28 0 255 0     
-68.883 -28.731 359.28 0 255 0     
-66.1 -28.731 359.28 0 255 0     
-64.012 -28.731 359.28 0 255 0     
-58.446 -28.731 359.28 0 255 0     
-45.921 -28.731 367.28 0 255 0     
-41.746 -28.731 359.28 0 255 0     
-29.917 -28.731 359.28 0 255 0     
-29.221 -28.731 359.28 0 255 0     
-23.665 -28.744 359.44 0 255 0     
-18.784 -28.731 359.28 0 255 0     
-16.704 -28.744 359.44 0 255 0     
0.69913 -28.744 359.44 0 255 0     
2.0923 -28.756 359.59 0 255 0     
2.7887 -28.756 359.59 0 255 0     
10.445 -28.744 359.44 0 255 0     
15.324 -28.756 359.59 0 255 0     
25.759 -28.744 359.44 0 255 0     
31.342 -28.756 359.59 0 255 0     
37.626 -28.769 359.75 0 255 0     
55.115 -28.806 360.21 0 255 0     
78.306 -28.868 361 0 255 0     
85.96 -28.856 360.84 0 255 0     
87.585 -28.931 361.78 0 255 0     
91.67 -28.893 361.31 0 255 0     
94.346 -28.856 360.84 0 255 0     
107.11 -28.906 361.47 0 255 0     
122.51 -28.906 361.47 0 255 0     
123.21 -28.906 361.47 0 255 0     
127.41 -28.906 361.47 0 255 0     
129.51 -28.906 361.47 0 255 0     
133.01 -28.906 361.47 0 255 0     
141.47 -28.919 361.62 0 255 0     
143.58 -28.919 361.62 0 255 0     
148.48 -28.919 361.62 0 255 0     
156.11 -28.906 361.47 0 255 0     
157.65 -28.931 361.78 0 255 0     
162.85 -29.236 365.59 0 255 0     
172.18 -29.378 367.37 0 255 0     
173.53 -29.365 367.21 0 255 0     
177.16 -29.378 367.37 0 255 0     
186.82 -29.443 368.18 0 255 0     
195.29 -29.43 368.02 0 255 0     
198.77 -29.417 367.86 0 255 0     
212.06 -29.482 376.67 0 255 0     
226.54 -29.508 369 0 255 0     
250.02 -29.495 368.84 0 255 0     
248.69 -29.172 364.79 0 255 0     
251.58 -28.856 360.84 0 255 0     
-132.82 -28.466 364.79 0 255 0     
-130.16 -28.503 365.27 0 255 0     
-125.75 -28.466 364.79 0 255 0     
-124.5 -28.503 365.27 0 255 0     
-99.569 -28.453 364.63 0 255 0     
-94.501 -28.416 364.16 0 255 0     
-85.694 -28.072 359.75 0 255 0     
-81.443 -28.048 367.44 0 255 0     
-80.016 -28.035 359.28 0 255 0     
-77.929 -28.035 359.28 0 255 0     
-73.754 -28.035 359.28 0 255 0     
-73.058 -28.035 359.28 0 255 0     
-66.043 -28.011 358.97 0 255 0     
-65.347 -28.011 358.97 0 255 0     
-64.012 -28.035 359.28 0 255 0     
-63.316 -28.035 359.28 0 255 0     
-59.141 -28.035 359.28 0 255 0     
-58.446 -28.035 359.28 0 255 0     
-54.967 -28.035 359.28 0 255 0     
-48.704 -28.035 367.28 0 255 0     
-48.008 -28.035 359.28 0 255 0     
-47.313 -28.035 359.28 0 255 0     
-45.225 -28.035 359.28 0 255 0     
-42.442 -28.035 359.28 0 255 0     
-32.7 -28.035 359.28 0 255 0     
-17.4 -28.048 359.44 0 255 0     
-16.008 -28.048 359.44 0 255 0     
-14.609 -28.035 359.28 0 255 0     
-13.919 -28.048 359.44 0 255 0     
-12.527 -28.048 359.44 0 255 0     
-4.8698 -28.048 359.44 0 255 0     
-1.3892 -28.048 359.44 0 255 0     
-0.69311 -28.048 359.44 0 255 0     
14.628 -28.06 359.59 0 255 0     
19.503 -28.06 359.59 0 255 0     
26.455 -28.048 359.44 0 255 0     
36.913 -28.06 359.59 0 255 0     
39.699 -28.06 359.59 0 255 0     
48.056 -28.06 359.59 0 255 0     
55.092 -28.096 360.06 0 255 0     
71.284 -28.157 360.84 0 255 0     
74.112 -28.169 361 0 255 0     
79.67 -28.157 360.84 0 255 0     
88.987 -28.23 361.78 0 255 0     
94.387 -28.169 361 0 255 0     
95.086 -28.169 361 0 255 0     
95.785 -28.169 361 0 255 0     
98.71 -28.206 361.47 0 255 0     
118.96 -28.194 361.31 0 255 0     
129.51 -28.206 361.47 0 255 0     
130.21 -28.206 361.47 0 255 0     
153.45 -28.23 361.78 0 255 0     
156.11 -28.206 361.47 0 255 0     
158.42 -28.243 361.94 0 255 0     
159.19 -28.255 362.1 0 255 0     
166.42 -28.654 367.21 0 255 0     
175.74 -28.667 367.37 0 255 0     
186.19 -28.743 368.35 0 255 0     
192.27 -28.692 367.69 0 255 0     
219.11 -28.756 368.51 0 255 0     
220.53 -28.756 368.51 0 255 0     
221.25 -28.756 368.51 0 255 0     
222.48 -28.73 368.18 0 255 0     
226.54 -28.794 369 0 255 0     
249.88 -27.583 353.48 0 255 0     
251.87 -27.501 352.43 0 255 0     
-120.1 -27.759 364.79 0 255 0     
-105.92 -27.747 364.63 0 255 0     
-105.17 -27.735 364.47 0 255 0     
-97.408 -27.735 372.47 0 255 0     
-85.694 -27.375 359.75 0 255 0     
-73.058 -27.34 359.28 0 255 0     
-64.652 -27.316 358.97 0 255 0     
-60.481 -27.316 358.97 0 255 0     
-59.837 -27.34 359.28 0 255 0     
-53.598 -27.351 359.44 0 255 0     
-50.792 -27.34 359.28 0 255 0     
-50.096 -27.34 359.28 0 255 0     
-41.746 -27.34 359.28 0 255 0     
-25.046 -27.34 359.28 0 255 0     
-19.48 -27.34 359.28 0 255 0     
-11.831 -27.351 359.44 0 255 0     
-11.135 -27.351 359.44 0 255 0     
-9.0426 -27.34 359.28 0 255 0     
-4.8698 -27.351 359.44 0 255 0     
15.324 -27.363 359.59 0 255 0     
27.152 -27.351 359.44 0 255 0     
45.29 -27.375 359.75 0 255 0     
45.987 -27.375 359.75 0 255 0     
54.394 -27.399 360.06 0 255 0     
59.973 -27.399 360.06 0 255 0     
67.79 -27.458 360.84 0 255 0     
79.67 -27.458 360.84 0 255 0     
81.103 -27.47 361 0 255 0     
81.944 -27.518 361.62 0 255 0     
89.531 -27.482 361.15 0 255 0     
90.231 -27.482 361.15 0 255 0     
94.387 -27.47 361 0 255 0     
97.225 -27.482 361.15 0 255 0     
107.81 -27.506 369.47 0 255 0     
111.31 -27.506 361.47 0 255 0     
116.91 -27.506 361.47 0 255 0     
123.91 -27.506 361.47 0 255 0     
124.61 -27.506 361.47 0 255 0     
130.16 -27.494 361.31 0 255 0     
135.11 -27.506 361.47 0 255 0     
136.51 -27.506 361.47 0 255 0     
139.37 -27.518 361.62 0 255 0     
151.21 -27.506 361.47 0 255 0     
154.78 -27.518 361.62 0 255 0     
170.68 -27.943 367.21 0 255 0     
195.29 -28.005 368.02 0 255 0     
198.95 -28.017 368.18 0 255 0     
206.53 -28.079 369 0 255 0     
233.08 -28.092 369.16 0 255 0     
241.34 -28.054 368.67 0 255 0     
248.69 -27.759 364.79 0 255 0     
250.03 -26.841 352.73 0 255 0     
-127.33 -27.088 365.27 0 255 0     
-99.525 -27.029 364.47 0 255 0     
-95.248 -27.017 364.31 0 255 0     
-85.694 -26.678 359.75 0 255 0     
-69.519 -26.621 358.97 0 255 0     
-67.433 -26.621 358.97 0 255 0     
-51.487 -26.644 359.28 0 255 0     
-47.313 -26.644 359.28 0 255 0     
-43.138 -26.644 359.28 0 255 0     
-42.46 -26.655 359.44 0 255 0     
-5.5659 -26.655 359.44 0 255 0     
-0.69311 -26.655 359.44 0 255 0     
10.445 -26.655 359.44 0 255 0     
12.533 -26.655 359.44 0 255 0     
16.717 -26.667 359.59 0 255 0     
20.199 -26.667 359.59 0 255 0     
25.074 -26.667 359.59 0 255 0     
26.455 -26.655 359.44 0 255 0     
32.721 -26.655 359.44 0 255 0     
33.431 -26.667 359.59 0 255 0     
43.877 -26.667 359.59 0 255 0     
55.092 -26.701 360.06 0 255 0     
57.159 -26.69 359.9 0 255 0     
58.578 -26.701 360.06 0 255 0     
61.367 -26.701 360.06 0 255 0     
74.112 -26.771 361 0 255 0     
79.006 -26.771 361 0 255 0     
87.471 -26.794 361.31 0 255 0     
114.11 -26.806 361.47 0 255 0     
121.06 -26.794 361.31 0 255 0     
126.01 -26.806 361.47 0 255 0     
140.01 -26.806 361.47 0 255 0     
141.47 -26.818 361.62 0 255 0     
144.21 -26.806 361.47 0 255 0     
144.91 -26.806 361.47 0 255 0     
182.3 -27.268 367.69 0 255 0     
185.48 -27.316 368.35 0 255 0     
189.59 -27.292 368.02 0 255 0     
193.16 -27.292 368.02 0 255 0     
202.69 -27.328 368.51 0 255 0     
212.78 -27.34 368.67 0 255 0     
213.49 -27.34 368.67 0 255 0     
215.63 -27.34 368.67 0 255 0     
216.96 -27.328 368.51 0 255 0     
221.96 -27.328 368.51 0 255 0     
235.62 -27.34 368.67 0 255 0     
247.04 -27.499 370.81 0 255 0     
247.49 -27.389 369.33 0 255 0     
249.25 -26.292 354.54 0 255 0     
-111.72 -26.369 365.11 0 255 0     
-69.519 -25.926 358.97 0 255 0     
-68.823 -25.926 358.97 0 255 0     
-61.871 -25.926 358.97 0 255 0     
-55.662 -25.948 359.28 0 255 0     
-48.008 -25.948 359.28 0 255 0     
-46.617 -25.948 359.28 0 255 0     
-27.134 -25.948 359.28 0 255 0     
-26.438 -25.948 359.28 0 255 0     
-25.046 -25.948 359.28 0 255 0     
-16.001 -25.948 359.28 0 255 0     
-14.609 -25.948 359.28 0 255 0     
-11.135 -25.959 359.44 0 255 0     
-9.7384 -25.948 359.28 0 255 0     
4.1797 -25.959 359.44 0 255 0     
9.0525 -25.959 359.44 0 255 0     
16.717 -25.97 359.59 0 255 0     
26.455 -25.959 359.44 0 255 0     
30.645 -25.97 359.59 0 255 0     
32.721 -25.959 359.44 0 255 0     
33.431 -25.97 359.59 0 255 0     
52.28 -25.993 359.9 0 255 0     
54.371 -25.993 359.9 0 255 0     
56.462 -25.993 359.9 0 255 0     
58.553 -25.993 359.9 0 255 0     
66.077 -25.937 359.13 0 255 0     
91.709 -26.106 361.47 0 255 0     
93.069 -26.094 361.31 0 255 0     
97.268 -26.094 361.31 0 255 0     
133.07 -26.117 361.62 0 255 0     
136.51 -26.106 361.47 0 255 0     
137.21 -26.106 361.47 0 255 0     
140.01 -26.106 361.47 0 255 0     
144.21 -26.106 361.47 0 255 0     
147.71 -26.106 361.47 0 255 0     
149.81 -26.106 361.47 0 255 0     
154.15 -26.129 361.78 0 255 0     
167.13 -26.521 367.21 0 255 0     
172.11 -26.521 367.21 0 255 0     
174.24 -26.521 367.21 0 255 0     
183.73 -26.556 367.69 0 255 0     
190.93 -26.567 367.86 0 255 0     
204.12 -26.614 368.51 0 255 0     
205.64 -26.626 368.67 0 255 0     
206.26 -26.614 368.51 0 255 0     
209.21 -26.626 368.67 0 255 0     
216.25 -26.614 368.51 0 255 0     
217.77 -26.626 368.67 0 255 0     
220.53 -26.614 368.51 0 255 0     
221.25 -26.614 368.51 0 255 0     
225.83 -26.65 369 0 255 0     
228.07 -26.662 369.16 0 255 0     
251.01 -26.22 363.04 0 255 0     
251.18 -25.454 352.43 0 255 0     
251.12 -25.378 351.39 0 255 0     
-132.17 -25.651 364.95 0 255 0     
-126.51 -25.651 364.95 0 255 0     
-120.15 -25.651 364.95 0 255 0     
-118.79 -25.662 365.11 0 255 0     
-115.21 -25.651 364.95 0 255 0     
-111.67 -25.651 364.95 0 255 0     
-107.38 -25.64 364.79 0 255 0     
-101.64 -25.617 364.47 0 255 0     
-88.634 -25.329 360.37 0 255 0     
-84.997 -25.285 359.75 0 255 0     
-82.835 -25.263 359.44 0 255 0     
-81.408 -25.252 359.28 0 255 0     
-80.016 -25.252 359.28 0 255 0     
-78.624 -25.252 359.28 0 255 0     
-73.058 -25.252 359.28 0 255 0     
-72.362 -25.252 359.28 0 255 0     
-65.404 -25.252 359.28 0 255 0     
-64.012 -25.252 359.28 0 255 0     
-59.141 -25.252 359.28 0 255 0     
-52.902 -25.263 359.44 0 255 0     
-52.206 -25.263 359.44 0 255 0     
-43.833 -25.252 359.28 0 255 0     
-41.05 -25.252 359.28 0 255 0     
-40.354 -25.252 359.28 0 255 0     
-37.571 -25.252 359.28 0 255 0     
-36.844 -25.23 358.97 0 255 0     
-31.977 -25.23 358.97 0 255 0     
-20.881 -25.263 359.44 0 255 0     
-13.223 -25.263 359.44 0 255 0     
-7.651 -25.252 359.28 0 255 0     
-4.8698 -25.263 359.44 0 255 0     
-4.1737 -25.263 359.44 0 255 0     
0.69913 -25.263 359.44 0 255 0     
5.572 -25.263 359.44 0 255 0     
21.583 -25.263 359.44 0 255 0     
32.024 -25.263 367.44 0 255 0     
41.77 -25.263 359.44 0 255 0     
44.574 -25.274 359.59 0 255 0     
62.708 -25.285 359.75 0 255 0     
69.218 -25.373 361 0 255 0     
75.543 -25.384 361.15 0 255 0     
79.705 -25.373 361 0 255 0     
94.469 -25.395 361.31 0 255 0     
107.11 -25.406 361.47 0 255 0     
121.81 -25.406 361.47 0 255 0     
122.51 -25.406 361.47 0 255 0     
133.77 -25.417 361.62 0 255 0     
137.21 -25.406 361.47 0 255 0     
151.21 -25.406 361.47 0 255 0     
158.49 -25.45 362.1 0 255 0     
162.78 -25.685 365.43 0 255 0     
166.49 -25.821 367.37 0 255 0     
167.84 -25.809 367.21 0 255 0     
173.53 -25.809 367.21 0 255 0     
179.46 -25.844 367.69 0 255 0     
188.25 -25.878 368.18 0 255 0     
190.3 -25.866 368.02 0 255 0     
193.07 -25.855 367.86 0 255 0     
201.98 -25.901 368.51 0 255 0     
214.92 -25.912 368.67 0 255 0     
216.35 -25.912 368.67 0 255 0     
219.3 -25.924 368.84 0 255 0     
225.83 -25.935 377 0 255 0     
234.91 -25.912 368.67 0 255 0     
235.62 -25.912 368.67 0 255 0     
238.06 -25.866 368.02 0 255 0     
240.62 -25.912 368.67 0 255 0     
247.15 -26.074 370.97 0 255 0     
247.82 -25.993 369.82 0 255 0     
-125.81 -24.944 364.95 0 255 0     
-121.57 -24.944 364.95 0 255 0     
-105.92 -24.922 364.63 0 255 0     
-105.22 -24.922 364.63 0 255 0     
-103.76 -24.911 364.47 0 255 0     
-89.759 -24.749 362.1 0 255 0     
-83.531 -24.567 359.44 0 255 0     
-78.624 -24.556 359.28 0 255 0     
-77.233 -24.556 359.28 0 255 0     
-65.404 -24.556 359.28 0 255 0     
-57.054 -24.556 359.28 0 255 0     
-50.096 -24.556 359.28 0 255 0     
-48.704 -24.556 359.28 0 255 0     
-25.046 -24.556 359.28 0 255 0     
-16.001 -24.556 359.28 0 255 0     
-2.0853 -24.567 367.44 0 255 0     
5.572 -24.567 359.44 0 255 0     
11.146 -24.578 359.59 0 255 0     
16.014 -24.567 359.44 0 255 0     
20.896 -24.578 359.59 0 255 0     
28.556 -24.578 359.59 0 255 0     
38.29 -24.567 359.44 0 255 0     
39.699 -24.578 359.59 0 255 0     
55.092 -24.61 360.06 0 255 0     
81.138 -24.684 361.15 0 255 0     
88.209 -24.706 361.47 0 255 0     
92.369 -24.695 361.31 0 255 0     
93.769 -24.695 361.31 0 255 0     
114.81 -24.706 361.47 0 255 0     
116.21 -24.706 361.47 0 255 0     
124.61 -24.706 361.47 0 255 0     
126.71 -24.706 361.47 0 255 0     
127.47 -24.716 361.62 0 255 0     
130.21 -24.706 361.47 0 255 0     
142.17 -24.716 361.62 0 255 0     
147.71 -24.706 361.47 0 255 0     
148.48 -24.716 361.62 0 255 0     
157.72 -24.738 361.94 0 255 0     
169.26 -25.098 367.21 0 255 0     
170.61 -25.087 367.05 0 255 0     
172.82 -25.098 367.21 0 255 0     
174.24 -25.098 367.21 0 255 0     
179.38 -25.12 367.53 0 255 0     
181.67 -25.143 367.86 0 255 0     
183.18 -25.154 368.02 0 255 0     
186.11 -25.165 376.18 0 255 0     
195.55 -25.187 376.51 0 255 0     
206.17 -25.176 368.35 0 255 0     
207.59 -25.176 368.35 0 255 0     
212.16 -25.209 368.84 0 255 0     
212.78 -25.198 368.67 0 255 0     
219.3 -25.209 368.84 0 255 0     
222.06 -25.198 368.67 0 255 0     
223.59 -25.209 368.84 0 255 0     
228.17 -25.243 369.33 0 255 0     
249.58 -25.31 370.31 0 255 0     
-107.38 -24.227 364.79 0 255 0     
-105.92 -24.216 364.63 0 255 0     
-95.165 -24.174 364 0 255 0     
-85.694 -23.892 359.75 0 255 0     
-84.997 -23.892 359.75 0 255 0     
-82.103 -23.861 359.28 0 255 0     
-77.861 -23.84 358.97 0 255 0     
-67.491 -23.861 359.28 0 255 0     
-66.043 -23.84 358.97 0 255 0     
-61.871 -23.84 358.97 0 255 0     
-42.442 -23.861 359.28 0 255 0     
-34.788 -23.861 359.28 0 255 0     
-32.005 -23.861 359.28 0 255 0     
-25.046 -23.861 359.28 0 255 0     
-11.831 -23.871 359.44 0 255 0     
-10.434 -23.861 359.28 0 255 0     
1.3946 -23.861 359.28 0 255 0     
10.449 -23.881 359.59 0 255 0     
16.014 -23.871 359.44 0 255 0     
33.417 -23.871 359.44 0 255 0     
34.824 -23.881 359.59 0 255 0     
35.505 -23.871 359.44 0 255 0     
36.897 -23.871 359.44 0 255 0     
37.593 -23.871 359.44 0 255 0     
38.306 -23.881 359.59 0 255 0     
55.092 -23.912 360.06 0 255 0     
57.183 -23.912 360.06 0 255 0     
68.429 -23.943 360.53 0 255 0     
76.275 -23.995 361.31 0 255 0     
79.705 -23.974 361 0 255 0     
81.838 -23.985 361.15 0 255 0     
92.369 -23.995 361.31 0 255 0     
105.71 -24.006 361.47 0 255 0     
107.11 -24.006 361.47 0 255 0     
114.81 -24.006 361.47 0 255 0     
119.71 -24.006 361.47 0 255 0     
121.06 -23.995 361.31 0 255 0     
121.81 -24.006 361.47 0 255 0     
130.21 -24.006 361.47 0 255 0     
134.41 -24.006 361.47 0 255 0     
138.67 -24.016 361.62 0 255 0     
147.71 -24.006 361.47 0 255 0     
152.61 -24.006 361.47 0 255 0     
156.25 -24.027 361.78 0 255 0     
169.97 -24.387 367.21 0 255 0     
172.03 -24.376 367.05 0 255 0     
172.82 -24.387 367.21 0 255 0     
180.09 -24.409 367.53 0 255 0     
184.52 -24.43 375.86 0 255 0     
188.88 -24.441 368.02 0 255 0     
208.4 -24.473 368.51 0 255 0     
212.06 -24.484 368.67 0 255 0     
216.25 -24.473 368.51 0 255 0     
216.96 -24.473 368.51 0 255 0     
217.87 -24.495 368.84 0 255 0     
218.59 -24.495 368.84 0 255 0     
229.5 -24.517 369.16 0 255 0     
232.05 -24.484 368.67 0 255 0     
237.35 -24.441 368.02 0 255 0     
248.75 -24.582 370.15 0 255 0     
252.31 -24.1 362.88 0 255 0     
249.77 -23.465 353.33 0 255 0     
249.71 -23.396 352.29 0 255 0     
-130.93 -23.561 365.43 0 255 0     
-129.57 -23.572 365.59 0 255 0     
-126.51 -23.53 364.95 0 255 0     
-125.16 -23.541 365.11 0 255 0     
-118.19 -23.561 365.43 0 255 0     
-115.91 -23.53 364.95 0 255 0     
-115.21 -23.53 364.95 0 255 0     
-113.13 -23.541 365.11 0 255 0     
-98.863 -23.51 364.63 0 255 0     
-96.702 -23.5 364.47 0 255 0     
-88.634 -23.235 360.37 0 255 0     
-75.145 -23.165 359.28 0 255 0     
-65.347 -23.145 358.97 0 255 0     
-63.957 -23.145 358.97 0 255 0     
-62.567 -23.145 358.97 0 255 0     
-48.704 -23.165 359.28 0 255 0     
-47.333 -23.175 359.44 0 255 0     
-41.746 -23.165 359.28 0 255 0     
-27.134 -23.165 359.28 0 255 0     
-16.697 -23.165 359.28 0 255 0     
-14.615 -23.175 359.44 0 255 0     
-13.919 -23.175 359.44 0 255 0     
-6.9552 -23.165 359.28 0 255 0     
0.0030115 -23.175 359.44 0 255 0     
4.8758 -23.175 359.44 0 255 0     
6.2681 -23.175 359.44 0 255 0     
18.11 -23.185 359.59 0 255 0     
34.128 -23.185 359.59 0 255 0     
37.61 -23.185 359.59 0 255 0     
38.306 -23.185 359.59 0 255 0     
42.466 -23.175 359.44 0 255 0     
43.877 -23.185 359.59 0 255 0     
47.38 -23.195 359.75 0 255 0     
49.47 -23.195 359.75 0 255 0     
50.842 -23.185 359.59 0 255 0     
51.56 -23.195 359.75 0 255 0     
56.486 -23.215 360.06 0 255 0     
57.856 -23.205 359.9 0 255 0     
60.644 -23.205 359.9 0 255 0     
62.708 -23.195 359.75 0 255 0     
63.432 -23.205 359.9 0 255 0     
69.886 -23.265 360.84 0 255 0     
76.942 -23.285 361.15 0 255 0     
83.237 -23.285 361.15 0 255 0     
85.372 -23.296 361.31 0 255 0     
90.93 -23.285 361.15 0 255 0     
92.369 -23.296 361.31 0 255 0     
95.868 -23.296 361.31 0 255 0     
114.81 -23.306 361.47 0 255 0     
133.71 -23.306 361.47 0 255 0     
136.57 -23.316 361.62 0 255 0     
137.27 -23.316 361.62 0 255 0     
137.97 -23.316 361.62 0 255 0     
140.01 -23.306 361.47 0 255 0     
142.88 -23.316 361.62 0 255 0     
147.78 -23.316 361.62 0 255 0     
150.51 -23.306 361.47 0 255 0     
153.31 -23.306 361.47 0 255 0     
157.72 -23.336 361.94 0 255 0     
164.92 -23.665 367.05 0 255 0     
169.97 -23.676 367.21 0 255 0     
181.59 -23.707 367.69 0 255 0     
182.22 -23.697 367.53 0 255 0     
191.82 -23.739 368.18 0 255 0     
198.86 -23.728 368.02 0 255 0     
211.25 -23.76 368.51 0 255 0     
237.45 -23.739 368.18 0 255 0     
249.79 -23.76 368.51 0 255 0     
-130.87 -22.844 365.27 0 255 0     
-130.16 -22.844 365.27 0 255 0     
-118.84 -22.844 365.27 0 255 0     
-113.79 -22.824 364.95 0 255 0     
-73.754 -22.469 359.28 0 255 0     
-64.652 -22.45 358.97 0 255 0     
-59.837 -22.469 359.28 0 255 0     
-56.358 -22.469 359.28 0 255 0     
-36.179 -22.469 359.28 0 255 0     
-25.742 -22.469 359.28 0 255 0     
-24.351 -22.469 359.28 0 255 0     
-22.969 -22.479 359.44 0 255 0     
-9.7426 -22.479 359.44 0 255 0     
-8.3504 -22.479 359.44 0 255 0     
0.0030115 -22.479 359.44 0 255 0     
1.3946 -22.469 359.28 0 255 0     
9.0525 -22.479 359.44 0 255 0     
13.229 -22.479 359.44 0 255 0     
18.11 -22.488 359.59 0 255 0     
18.806 -22.488 359.59 0 255 0     
28.544 -22.479 359.44 0 255 0     
40.395 -22.488 359.59 0 255 0     
42.466 -22.479 359.44 0 255 0     
46.006 -22.508 359.9 0 255 0     
56.486 -22.518 360.06 0 255 0     
66.249 -22.518 360.06 0 255 0     
71.284 -22.566 360.84 0 255 0     
76.942 -22.586 361.15 0 255 0     
87.471 -22.596 361.31 0 255 0     
103.57 -22.596 361.31 0 255 0     
112.66 -22.596 361.31 0 255 0     
123.21 -22.606 361.47 0 255 0     
125.31 -22.606 361.47 0 255 0     
130.27 -22.615 361.62 0 255 0     
135.11 -22.606 361.47 0 255 0     
138.67 -22.615 361.62 0 255 0     
149.18 -22.615 361.62 0 255 0     
149.81 -22.606 361.47 0 255 0     
152.61 -22.606 361.47 0 255 0     
153.31 -22.606 361.47 0 255 0     
154.01 -22.606 361.47 0 255 0     
154.78 -22.615 361.62 0 255 0     
155.48 -22.615 361.62 0 255 0     
156.95 -22.625 361.78 0 255 0     
159.33 -22.665 362.41 0 255 0     
170.61 -22.955 367.05 0 255 0     
178.59 -22.975 367.37 0 255 0     
199.57 -23.015 368.02 0 255 0     
211.25 -23.046 368.51 0 255 0     
221.44 -23.066 368.84 0 255 0     
228.17 -23.097 369.33 0 255 0     
228.59 -23.066 368.84 0 255 0     
229.2 -23.056 368.67 0 255 0     
231.95 -23.046 368.51 0 255 0     
235.42 -23.036 368.35 0 255 0     
237.35 -23.015 368.02 0 255 0     
239.09 -23.046 368.51 0 255 0     
246.33 -23.19 370.81 0 255 0     
249.71 -22.714 363.2 0 255 0     
249.51 -22.134 353.93 0 255 0     
-125.16 -22.127 365.11 0 255 0     
-113.79 -22.117 364.95 0 255 0     
-113.09 -22.117 364.95 0 255 0     
-98.863 -22.097 364.63 0 255 0     
-79.32 -21.773 359.28 0 255 0     
-77.166 -21.754 358.97 0 255 0     
-60.533 -21.773 359.28 0 255 0     
-54.271 -21.773 359.28 0 255 0     
-52.879 -21.773 359.28 0 255 0     
-38.283 -21.783 359.44 0 255 0     
-35.484 -21.773 359.28 0 255 0     
-34.788 -21.773 359.28 0 255 0     
-21.577 -21.783 359.44 0 255 0     
-15.312 -21.783 359.44 0 255 0     
-13.919 -21.783 359.44 0 255 0     
-10.434 -21.773 359.28 0 255 0     
6.2708 -21.792 359.59 0 255 0     
11.146 -21.792 359.59 0 255 0     
12.533 -21.783 359.44 0 255 0     
16.014 -21.783 359.44 0 255 0     
21.592 -21.792 359.59 0 255 0     
25.063 -21.783 359.44 0 255 0     
32.038 -21.792 359.59 0 255 0     
34.128 -21.792 359.59 0 255 0     
46.006 -21.811 359.9 0 255 0     
53.674 -21.811 359.9 0 255 0     
55.741 -21.801 359.75 0 255 0     
56.462 -21.811 359.9 0 255 0     
57.856 -21.811 359.9 0 255 0     
67.062 -21.858 360.68 0 255 0     
69.218 -21.877 361 0 255 0     
69.917 -21.877 361 0 255 0     
76.275 -21.896 361.31 0 255 0     
78.306 -21.877 361 0 255 0     
83.237 -21.887 361.15 0 255 0     
95.91 -21.906 361.47 0 255 0     
97.967 -21.896 361.31 0 255 0     
100.77 -21.896 361.31 0 255 0     
105.01 -21.906 361.47 0 255 0     
121.11 -21.906 361.47 0 255 0     
127.41 -21.906 361.47 0 255 0     
131.61 -21.906 361.47 0 255 0     
141.41 -21.906 361.47 0 255 0     
147.78 -21.915 361.62 0 255 0     
154.78 -21.915 361.62 0 255 0     
156.18 -21.915 361.62 0 255 0     
169.26 -22.253 367.21 0 255 0     
169.97 -22.253 367.21 0 255 0     
172.03 -22.244 367.05 0 255 0     
181.51 -22.273 367.53 0 255 0     
182.93 -22.273 367.53 0 255 0     
186.03 -22.303 368.02 0 255 0     
194.75 -22.322 368.35 0 255 0     
197.52 -22.313 368.18 0 255 0     
199.66 -22.313 368.18 0 255 0     
210.17 -22.293 367.86 0 255 0     
211.97 -22.332 368.51 0 255 0     
214.01 -22.322 368.35 0 255 0     
220.01 -22.352 368.84 0 255 0     
222.06 -22.342 368.67 0 255 0     
228.48 -22.342 368.67 0 255 0     
239.19 -22.342 368.67 0 255 0     
245.28 -22.442 370.31 0 255 0     
-133.58 -21.41 364.95 0 255 0     
-132.17 -21.41 364.95 0 255 0     
-126.51 -21.41 364.95 0 255 0     
-110.26 -21.41 364.95 0 255 0     
-106.63 -21.391 364.63 0 255 0     
-105.22 -21.391 364.63 0 255 0     
-104.51 -21.391 364.63 0 255 0     
-98.863 -21.391 364.63 0 255 0     
-97.408 -21.382 364.47 0 255 0     
-84.96 -21.096 359.59 0 255 0     
-77.233 -21.077 359.28 0 255 0     
-68.883 -21.077 359.28 0 255 0     
-49.4 -21.077 359.28 0 255 0     
-45.186 -21.059 358.97 0 255 0     
-42.442 -21.077 359.28 0 255 0     
-20.184 -21.086 359.44 0 255 0     
-11.826 -21.077 359.28 0 255 0     
1.3952 -21.086 359.44 0 255 0     
6.9672 -21.096 359.59 0 255 0     
7.6603 -21.086 359.44 0 255 0     
13.925 -21.086 359.44 0 255 0     
26.455 -21.086 359.44 0 255 0     
30.645 -21.096 359.59 0 255 0     
32.038 -21.096 359.59 0 255 0     
38.986 -21.086 359.44 0 255 0     
43.858 -21.086 359.44 0 255 0     
53.65 -21.105 359.75 0 255 0     
69.917 -21.178 361 0 255 0     
71.983 -21.169 360.84 0 255 0     
72.682 -21.169 360.84 0 255 0     
81.873 -21.196 361.31 0 255 0     
102.21 -21.205 361.47 0 255 0     
102.91 -21.205 361.47 0 255 0     
107.11 -21.205 361.47 0 255 0     
126.71 -21.205 361.47 0 255 0     
130.91 -21.205 361.47 0 255 0     
134.47 -21.215 361.62 0 255 0     
138.03 -21.224 361.78 0 255 0     
138.67 -21.215 361.62 0 255 0     
165.71 -21.542 367.21 0 255 0     
169.26 -21.542 367.21 0 255 0     
179.22 -21.542 367.21 0 255 0     
180.8 -21.561 367.53 0 255 0     
188 -21.571 367.69 0 255 0     
193.33 -21.609 368.35 0 255 0     
194.75 -21.609 368.35 0 255 0     
208.74 -21.58 367.86 0 255 0     
227.26 -21.647 369 0 255 0     
232.36 -21.59 368.02 0 255 0     
235.92 -21.59 368.02 0 255 0     
240.84 -21.647 369 0 255 0     
246.33 -21.753 370.81 0 255 0     
-130.28 -20.74 365.59 0 255 0     
-115.91 -20.703 364.95 0 255 0     
-108.84 -20.703 364.95 0 255 0     
-107.34 -20.685 364.63 0 255 0     
-75.841 -20.381 359.28 0 255 0     
-72.3 -20.364 358.97 0 255 0     
-62.621 -20.381 359.28 0 255 0     
-50.792 -20.381 359.28 0 255 0     
-41.746 -20.381 359.28 0 255 0     
-32.7 -20.381 359.28 0 255 0     
-16.697 -20.381 359.28 0 255 0     
14.621 -20.39 359.44 0 255 0     
27.152 -20.39 359.44 0 255 0     
47.38 -20.408 359.75 0 255 0     
54.371 -20.417 359.9 0 255 0     
64.046 -20.39 359.44 0 255 0     
65.551 -20.426 360.06 0 255 0     
70.616 -20.479 361 0 255 0     
76.942 -20.488 361.15 0 255 0     
81.138 -20.488 361.15 0 255 0     
83.237 -20.488 361.15 0 255 0     
88.871 -20.497 361.31 0 255 0     
100.07 -20.497 361.31 0 255 0     
122.51 -20.505 361.47 0 255 0     
130.27 -20.514 361.62 0 255 0     
134.47 -20.514 361.62 0 255 0     
136.57 -20.514 361.62 0 255 0     
148.41 -20.505 361.47 0 255 0     
152.68 -20.514 361.62 0 255 0     
175.66 -20.831 367.21 0 255 0     
181.51 -20.85 367.53 0 255 0     
200.91 -20.868 367.86 0 255 0     
208.03 -20.868 367.86 0 255 0     
208.74 -20.868 367.86 0 255 0     
220.63 -20.914 368.67 0 255 0     
226.44 -20.923 368.84 0 255 0     
232.36 -20.877 368.02 0 255 0     
238.88 -20.886 368.18 0 255 0     
246.22 -21.026 370.64 0 255 0     
248.75 -20.998 370.15 0 255 0     
249.47 -20.998 378.15 0 255 0     
249.79 -20.905 368.51 0 255 0     
-131.64 -20.023 365.43 0 255 0     
-112.38 -19.996 364.95 0 255 0     
-105.22 -19.979 364.63 0 255 0     
-100.23 -19.97 364.47 0 255 0     
-97.45 -19.979 364.63 0 255 0     
-87.087 -19.711 359.75 0 255 0     
-85.694 -19.711 359.75 0 255 0     
-70.879 -19.66 358.82 0 255 0     
-66.738 -19.669 358.97 0 255 0     
-64.012 -19.686 359.28 0 255 0     
-57.054 -19.686 359.28 0 255 0     
-44.529 -19.686 359.28 0 255 0     
-43.138 -19.686 359.28 0 255 0     
-41.05 -19.686 359.28 0 255 0     
-31.322 -19.694 367.44 0 255 0     
-28.526 -19.686 359.28 0 255 0     
-22.969 -19.694 359.44 0 255 0     
-18.792 -19.694 359.44 0 255 0     
-8.3468 -19.686 359.28 0 255 0     
-4.1737 -19.694 359.44 0 255 0     
3.4836 -19.694 359.44 0 255 0     
6.9642 -19.694 359.44 0 255 0     
9.7487 -19.694 359.44 0 255 0     
14.621 -19.694 359.44 0 255 0     
25.063 -19.694 359.44 0 255 0     
35.52 -19.703 359.59 0 255 0     
36.897 -19.694 359.44 0 255 0     
80.439 -19.788 361.15 0 255 0     
83.273 -19.797 361.31 0 255 0     
100.07 -19.797 361.31 0 255 0     
102.91 -19.805 361.47 0 255 0     
103.57 -19.797 361.31 0 255 0     
107.11 -19.805 361.47 0 255 0     
111.31 -19.805 361.47 0 255 0     
115.51 -19.805 361.47 0 255 0     
123.21 -19.805 361.47 0 255 0     
123.91 -19.805 361.47 0 255 0     
125.31 -19.805 361.47 0 255 0     
144.21 -19.805 369.47 0 255 0     
157.02 -19.831 361.94 0 255 0     
158.56 -19.848 362.25 0 255 0     
164.28 -20.12 367.21 0 255 0     
169.26 -20.12 367.21 0 255 0     
169.97 -20.12 367.21 0 255 0     
179.3 -20.129 367.37 0 255 0     
189.34 -20.138 367.53 0 255 0     
191.73 -20.164 368.02 0 255 0     
199.48 -20.156 367.86 0 255 0     
208.03 -20.156 367.86 0 255 0     
211.69 -20.164 368.02 0 255 0     
237.35 -20.164 368.02 0 255 0     
237.95 -20.156 367.86 0 255 0     
248.75 -20.281 370.15 0 255 0     
251.28 -19.857 362.41 0 255 0     
250.95 -19.189 350.21 0 255 0     
-128.8 -19.315 365.43 0 255 0     
-120.91 -19.298 365.11 0 255 0     
-113.74 -19.281 364.79 0 255 0     
-113.04 -19.281 364.79 0 255 0     
-111.67 -19.29 364.95 0 255 0     
-106.63 -19.273 364.63 0 255 0     
-103.76 -19.264 364.47 0 255 0     
-79.981 -18.982 359.13 0 255 0     
-76.537 -18.99 359.28 0 255 0     
-72.995 -18.973 358.97 0 255 0     
-70.909 -18.973 358.97 0 255 0     
-62.621 -18.99 359.28 0 255 0     
-54.967 -18.99 359.28 0 255 0     
-43.138 -18.99 359.28 0 255 0     
-34.788 -18.99 359.28 0 255 0     
-20.881 -18.998 359.44 0 255 0     
-16.001 -18.99 359.28 0 255 0     
-8.3468 -18.99 367.28 0 255 0     
-7.6543 -18.998 359.44 0 255 0     
-2.7815 -18.998 359.44 0 255 0     
-2.0853 -18.998 359.44 0 255 0     
9.7487 -18.998 359.44 0 255 0     
11.141 -18.998 359.44 0 255 0     
13.229 -18.998 359.44 0 255 0     
16.71 -18.998 359.44 0 255 0     
18.798 -18.998 359.44 0 255 0     
30.645 -19.006 359.59 0 255 0     
32.024 -18.998 359.44 0 255 0     
32.735 -19.006 359.59 0 255 0     
56.486 -19.031 360.06 0 255 0     
74.112 -19.08 361 0 255 0     
76.942 -19.089 361.15 0 255 0     
83.936 -19.089 361.15 0 255 0     
89.531 -19.089 361.15 0 255 0     
107.11 -19.105 361.47 0 255 0     
130.27 -19.114 361.62 0 255 0     
131.61 -19.105 361.47 0 255 0     
143.51 -19.105 361.47 0 255 0     
158.56 -19.147 362.25 0 255 0     
182.93 -19.426 367.53 0 255 0     
194.04 -19.469 368.35 0 255 0     
194.75 -19.469 368.35 0 255 0     
203.76 -19.443 367.86 0 255 0     
206.7 -19.452 368.02 0 255 0     
239.8 -19.478 368.51 0 255 0     
244.02 -19.529 369.49 0 255 0     
247.27 -19.503 369 0 255 0     
248.96 -19.358 366.24 0 255 0     
248.58 -19.273 364.63 0 255 0     
251.01 -19.189 363.04 0 255 0     
251.02 -18.565 351.24 0 255 0     
-130.28 -18.616 365.59 0 255 0     
-124.01 -18.632 365.92 0 255 0     
-108.14 -18.583 364.95 0 255 0     
-103.71 -18.55 364.31 0 255 0     
-89.603 -18.405 361.47 0 255 0     
-87.087 -18.318 359.75 0 255 0     
-84.96 -18.31 359.59 0 255 0     
-82.103 -18.294 359.28 0 255 0     
-80.642 -18.278 358.97 0 255 0     
-77.233 -18.294 359.28 0 255 0     
-75.145 -18.294 359.28 0 255 0     
-64.652 -18.278 358.97 0 255 0     
-62.567 -18.278 358.97 0 255 0     
-60.533 -18.294 359.28 0 255 0     
-56.358 -18.294 359.28 0 255 0     
-55.614 -18.278 358.97 0 255 0     
-53.575 -18.294 359.28 0 255 0     
-45.225 -18.294 359.28 0 255 0     
-34.092 -18.294 359.28 0 255 0     
-33.396 -18.294 359.28 0 255 0     
-32.005 -18.294 359.28 0 255 0     
-25.057 -18.302 359.44 0 255 0     
-24.361 -18.302 359.44 0 255 0     
-20.881 -18.302 359.44 0 255 0     
-17.4 -18.302 359.44 0 255 0     
-6.2621 -18.302 359.44 0 255 0     
-1.3892 -18.302 359.44 0 255 0     
0.69883 -18.294 359.28 0 255 0     
13.229 -18.302 359.44 0 255 0     
18.102 -18.302 359.44 0 255 0     
20.19 -18.302 359.44 0 255 0     
24.367 -18.302 359.44 0 255 0     
32.024 -18.302 359.44 0 255 0     
34.809 -18.302 359.44 0 255 0     
48.752 -18.31 359.59 0 255 0     
72.682 -18.373 360.84 0 255 0     
82.537 -18.389 361.15 0 255 0     
86.771 -18.397 361.31 0 255 0     
95.868 -18.397 361.31 0 255 0     
100.81 -18.405 361.47 0 255 0     
103.61 -18.405 361.47 0 255 0     
109.21 -18.405 361.47 0 255 0     
118.31 -18.405 361.47 0 255 0     
122.51 -18.405 361.47 0 255 0     
133.01 -18.405 361.47 0 255 0     
133.71 -18.405 361.47 0 255 0     
134.41 -18.405 361.47 0 255 0     
140.71 -18.405 361.47 0 255 0     
141.41 -18.405 361.47 0 255 0     
146.31 -18.405 361.47 0 255 0     
157.72 -18.429 361.94 0 255 0     
158.63 -18.453 362.41 0 255 0     
163.57 -18.698 367.21 0 255 0     
165.71 -18.698 367.21 0 255 0     
168.55 -18.698 367.21 0 255 0     
169.34 -18.706 367.37 0 255 0     
207.41 -18.739 368.02 0 255 0     
220.11 -18.789 369 0 255 0     
227.77 -18.772 368.67 0 255 0     
231.24 -18.764 368.51 0 255 0     
237.35 -18.739 368.02 0 255 0     
248.83 -18.122 355.9 0 255 0     
-131.58 -17.892 365.27 0 255 0     
-127.44 -17.907 365.59 0 255 0     
-108.09 -17.868 364.79 0 255 0     
-107.38 -17.868 364.79 0 255 0     
-105.22 -17.86 364.63 0 255 0     
-103.71 -17.845 364.31 0 255 0     
-97.45 -17.86 364.63 0 255 0     
-89.525 -17.69 361.15 0 255 0     
-85.694 -17.621 359.75 0 255 0     
-84.264 -17.613 359.59 0 255 0     
-73.69 -17.583 358.97 0 255 0     
-66.1 -17.598 359.28 0 255 0     
-64.012 -17.598 367.28 0 255 0     
-59.09 -17.583 358.97 0 255 0     
-38.963 -17.598 359.28 0 255 0     
-32.7 -17.598 359.28 0 255 0     
-27.83 -17.598 359.28 0 255 0     
-26.438 -17.598 359.28 0 255 0     
-4.1737 -17.606 359.44 0 255 0     
-2.0853 -17.606 359.44 0 255 0     
-1.3892 -17.606 359.44 0 255 0     
2.7875 -17.606 359.44 0 255 0     
4.1797 -17.606 359.44 0 255 0     
6.9642 -17.606 359.44 0 255 0     
13.925 -17.606 359.44 0 255 0     
24.367 -17.606 359.44 0 255 0     
30.645 -17.613 359.59 0 255 0     
39.682 -17.606 359.44 0 255 0     
43.181 -17.613 359.59 0 255 0     
46.683 -17.621 359.75 0 255 0     
50.864 -17.621 359.75 0 255 0     
52.28 -17.629 359.9 0 255 0     
54.324 -17.613 359.59 0 255 0     
62.789 -17.644 360.21 0 255 0     
65.608 -17.652 360.37 0 255 0     
88.171 -17.698 361.31 0 255 0     
94.469 -17.698 361.31 0 255 0     
99.367 -17.698 361.31 0 255 0     
100.11 -17.705 361.47 0 255 0     
102.87 -17.698 361.31 0 255 0     
103.61 -17.705 361.47 0 255 0     
106.41 -17.705 361.47 0 255 0     
129.51 -17.705 361.47 0 255 0     
136.51 -17.705 361.47 0 255 0     
137.91 -17.705 361.47 0 255 0     
142.81 -17.705 361.47 0 255 0     
150.58 -17.713 361.62 0 255 0     
156.95 -17.721 361.78 0 255 0     
157.72 -17.728 361.94 0 255 0     
167.84 -17.986 367.21 0 255 0     
168.55 -17.986 367.21 0 255 0     
170.05 -17.994 367.37 0 255 0     
177.01 -17.979 367.05 0 255 0     
183.73 -18.01 367.69 0 255 0     
186.58 -18.01 367.69 0 255 0     
187.92 -18.002 367.53 0 255 0     
191.02 -18.026 368.02 0 255 0     
193.87 -18.026 368.02 0 255 0     
196.09 -18.034 368.18 0 255 0     
197.43 -18.026 368.02 0 255 0     
199.48 -18.018 367.86 0 255 0     
209.46 -18.018 367.86 0 255 0     
