# .PCD v0.7 - Point Cloud Data file format
VERSION 0.7
FIELDS x y z rgb
SIZE 4 4 4 4
TYPE F F F F
COUNT 1 1 1 1
WIDTH 1060
HEIGHT 1
VIEWPOINT 0 0 0 1 0 0 0
POINTS 1060
DATA ascii
-119.44656 -73.006645 364.95349 2.3341274e-38
-111.06234 -73.070732 365.27386 2.3341274e-38
-106.72412 -73.006645 364.95349 2.3341274e-38
-103.7604 -72.910728 364.474 2.3341274e-38
-100.27495 -72.942673 364.6337 2.3341274e-38
-97.407539 -72.910728 364.474 2.3341274e-38
-91.760544 -72.910728 364.474 2.3341274e-38
-91.760544 -72.910728 364.474 2.3341274e-38
-90.151382 -72.751419 363.67761 2.3418052e-38
-89.329941 -72.656166 363.20145 2.3418052e-38
-84.369255 -72.624466 363.04303 2.2426381e-39
-83.666153 -72.624466 363.04303 2.2426381e-39
-79.089455 -72.942673 364.6337 1.8935445e-38
-76.365097 -73.038681 365.11362 2.3418052e-38
-76.365097 -73.038681 365.11362 2.3418052e-38
-63.06831 -73.199249 365.91629 2.3341274e-38
-50.356583 -73.26368 366.23834 2.3341274e-38
-45.391548 -73.26368 366.23834 2.3418052e-38
-44.662601 -73.231445 366.07724 2.3418052e-38
-38.752121 -72.783226 363.83661 8.3412193e-39
-29.942995 -71.934097 359.59192 1.0338689e-38
-29.233944 -71.90303 359.43661 1.0338689e-38
-17.399939 -71.90303 359.43661 1.6481351e-38
-8.3504047 -71.90303 359.43661 1.6481351e-38
-4.8698144 -71.90303 359.43661 1.6481351e-38
4.8758373 -71.90303 359.43661 1.6481351e-38
16.013725 -71.90303 359.43661 1.6481351e-38
16.013725 -71.90303 359.43661 1.6481351e-38
28.568527 -71.965195 359.74738 1.6481351e-38
32.777184 -72.027466 360.05865 1.6481351e-38
39.802071 -72.121078 360.52661 1.6481351e-38
46.824932 -72.183617 360.83926 1.6481351e-38
53.883366 -72.277634 361.30923 1.6481351e-38
65.079285 -72.277634 361.30923 1.6481351e-38
69.277748 -72.277634 361.30923 1.6481351e-38
80.473663 -72.277634 361.30923 1.6481351e-38
88.870598 -72.277634 361.30923 1.6481351e-38
93.109489 -72.309029 361.46616 1.6481351e-38
104.62838 -72.529549 362.56851 6.9718915e-39
115.87244 -73.42524 367.04599 2.3341274e-38
120.84843 -73.42524 367.04599 2.3341274e-38
132.22211 -73.42524 367.04599 2.3341274e-38
143.59579 -73.42524 367.04599 2.3341274e-38
147.86092 -73.42524 367.04599 2.3341274e-38
147.86092 -73.42524 367.04599 2.3341274e-38
159.37518 -73.490067 367.37006 2.3341274e-38
162.9326 -73.490067 367.37006 2.3341274e-38
170.68356 -73.457642 367.20795 2.3341274e-38
181.99352 -73.717857 368.50876 2.3341274e-38
194.92621 -73.750519 368.67203 2.3341274e-38
208.5847 -73.783203 368.83542 2.3341274e-38
222.25529 -73.815918 368.99896 2.3341274e-38
222.25529 -73.815918 368.99896 2.3341274e-38
234.30023 -73.783203 368.83542 2.3341274e-38
242.87209 -73.783203 368.83542 2.3341274e-38
250.46431 -72.466408 362.25287 1.5707878e-38
250.17328 -71.779022 358.81671 1.5707878e-38
250.00586 -71.532288 357.58331 1.5707878e-38
-133.64122 -72.331566 365.11362 2.3341274e-38
-128.09671 -72.395088 365.43427 2.3341274e-38
-117.32616 -72.299843 364.95349 2.3341274e-38
-115.91255 -72.299843 364.95349 2.3341274e-38
-105.26435 -72.26815 364.79352 2.3341274e-38
-95.331665 -72.236488 364.6337 2.3341274e-38
-82.080917 -71.764832 362.25287 1.8935445e-38
-74.950874 -72.331566 365.11362 1.8935445e-38
-74.950874 -72.331566 365.11362 1.8935445e-38
-67.969208 -72.426895 365.59479 2.3341274e-38
-54.612328 -72.554382 366.23834 2.3341274e-38
-42.423695 -72.331566 365.11362 2.2957759e-38
-41.680012 -72.26815 364.79352 2.2957759e-38
-31.349379 -71.268478 359.74738 1.0338689e-38
-20.880527 -71.206917 359.43661 1.6481351e-38
-11.830995 -71.206917 359.43661 1.6481351e-38
-2.7814605 -71.206917 359.43661 1.6481351e-38
7.6603093 -71.206917 359.43661 1.6481351e-38
9.0525455 -71.206917 359.43661 1.6481351e-38
20.895576 -71.237679 359.59192 1.6481351e-38
29.974924 -71.299294 359.90295 1.6481351e-38
41.896759 -71.422852 360.52661 1.6481351e-38
54.559425 -71.546829 361.15244 1.6481351e-38
55.958305 -71.546829 361.15244 1.6481351e-38
68.548241 -71.546829 361.15244 1.6481351e-38
72.108032 -71.608978 361.46616 1.6481351e-38
73.508133 -71.608978 361.46616 1.6481351e-38
82.608765 -71.608978 361.46616 1.6481351e-38
93.109489 -71.608978 361.46616 1.6481351e-38
106.6367 -72.236488 364.6337 6.9718915e-39
117.34591 -72.746468 367.20795 2.3341274e-38
117.34591 -72.746468 367.20795 2.3341274e-38
130.14694 -72.746468 367.20795 2.3341274e-38
130.8004 -72.714386 367.04599 2.3341274e-38
132.22211 -72.714386 367.04599 2.3341274e-38
141.52565 -72.746468 367.20795 2.3341274e-38
146.43921 -72.714386 367.04599 2.3341274e-38
155.03786 -72.746468 367.20795 2.3341274e-38
157.95222 -72.77858 367.37006 2.3341274e-38
162.9326 -72.77858 367.37006 2.3341274e-38
164.99422 -72.746468 367.20795 2.3341274e-38
175.58426 -72.714386 367.04599 2.3341274e-38
187.70302 -73.004173 368.50876 2.3341274e-38
199.29852 -73.068878 368.83542 2.3341274e-38
205.54523 -73.004173 368.50876 2.3341274e-38
207.87038 -73.068878 368.83542 2.3341274e-38
208.5847 -73.068878 368.83542 2.3341274e-38
218.58519 -73.068878 368.83542 2.3341274e-38
226.34239 -73.036514 368.67203 2.3341274e-38
228.58568 -73.068878 368.83542 2.3341274e-38
236.94749 -73.004173 368.50876 2.3341274e-38
239.80225 -73.004173 368.50876 2.3341274e-38
239.80225 -73.004173 368.50876 2.3341274e-38
247.37729 -73.133705 369.16263 2.3418052e-38
249.72284 -70.176392 354.23477 1.5707878e-38
-123.14258 -71.687355 365.43427 2.3341274e-38
-115.91255 -71.59304 364.95349 2.3341274e-38
-102.30385 -71.467682 364.31442 2.3341274e-38
-90.776375 -71.280457 363.36005 2.3418052e-38
-87.0298 -71.094208 362.41061 2.2426381e-39
-77.405762 -71.280457 363.36005 1.8935445e-38
-74.950874 -71.624451 365.11362 1.8935445e-38
-73.536652 -71.624451 365.11362 1.8935445e-38
-62.359642 -71.781914 365.91629 2.3418052e-38
-56.71524 -71.813492 366.07724 2.3341274e-38
-54.588306 -71.813492 366.07724 2.3418052e-38
-47.477631 -71.781914 365.91629 2.3418052e-38
-33.439537 -70.571754 359.74738 1.0338689e-38
-20.18441 -70.510796 359.43661 1.6481351e-38
-10.438759 -70.510796 359.43661 1.6481351e-38
0.0030127671 -70.54126 359.59192 1.6481351e-38
7.6603093 -70.510796 359.43661 1.6481351e-38
19.494316 -70.510796 359.43661 1.6481351e-38
22.994768 -70.571754 359.74738 1.6481351e-38
24.388208 -70.571754 359.74738 1.6481351e-38
27.883862 -70.602272 359.90295 1.6481351e-38
32.079861 -70.63282 360.05865 1.6481351e-38
44.029594 -70.78595 360.83926 1.6481351e-38
44.029594 -70.78595 360.83926 1.6481351e-38
49.641796 -70.816658 360.99579 1.6481351e-38
63.007401 -70.908928 361.46616 1.6481351e-38
65.079285 -70.878143 361.30923 1.6481351e-38
71.376984 -70.878143 361.30923 1.6481351e-38
77.70842 -70.908928 361.46616 1.6481351e-38
86.77137 -70.878143 361.30923 1.6481351e-38
95.209641 -70.908928 361.46616 1.6481351e-38
110.1856 -72.003532 367.04599 6.9718915e-39
113.0789 -72.035301 367.20795 2.3341274e-38
115.16159 -72.003532 367.04599 2.3341274e-38
125.87994 -72.035301 367.20795 2.3341274e-38
132.22211 -72.003532 367.04599 2.3341274e-38
144.37032 -72.035301 367.20795 2.3341274e-38
144.37032 -72.035301 367.20795 2.3341274e-38
146.50383 -72.035301 367.20795 2.3341274e-38
150.05966 -72.035301 367.20795 2.3341274e-38
150.05966 -72.035301 367.20795 2.3341274e-38
163.57187 -72.035301 367.20795 2.3341274e-38
174.87341 -72.003532 367.04599 2.3341274e-38
189.04669 -72.258484 368.34567 2.3341274e-38
196.35422 -72.32251 368.67203 2.3341274e-38
197.78223 -72.32251 368.67203 2.3341274e-38
202.15581 -72.354561 368.83542 2.3341274e-38
202.87013 -72.354561 368.83542 2.3341274e-38
216.44223 -72.354561 368.83542 2.3341274e-38
224.3992 -72.386642 368.99896 2.3341274e-38
235.01456 -72.354561 368.83542 2.3341274e-38
246.44368 -72.354561 368.83542 2.3418052e-38
248.576 -71.125183 362.56851 6.7460932e-39
250.77586 -70.755272 360.68286 1.5707878e-38
250.60759 -69.166496 352.58389 1.5707878e-38
-126.62565 -70.948463 365.27386 2.3341274e-38
-125.80779 -70.886238 364.95349 2.3341274e-38
-115.91255 -70.886238 364.95349 2.3341274e-38
-115.91255 -70.886238 364.95349 2.3341274e-38
-113.84206 -70.917343 365.11362 2.3341274e-38
-111.11111 -70.979622 365.43427 2.3341274e-38
-102.34866 -70.793106 364.474 2.3341274e-38
-89.135437 -70.392326 362.41061 2.3418052e-38
-82.459442 -70.087112 360.83926 2.2426381e-39
-74.918007 -70.886238 364.95349 1.8935445e-38
-63.040592 -71.042015 365.75546 2.3418052e-38
-51.043411 -71.104515 366.07724 2.3418052e-38
-48.894966 -71.07325 365.91629 2.2957759e-38
-43.665504 -70.63842 363.67761 2.2957759e-38
-43.665504 -70.63842 363.67761 2.2957759e-38
-36.923138 -69.875038 359.74738 8.3412193e-39
-36.226418 -69.875038 359.74738 8.3412193e-39
-28.537827 -69.814674 359.43661 1.6481351e-38
-28.537827 -69.814674 359.43661 1.6481351e-38
-17.392427 -69.784538 359.28143 1.6481351e-38
-17.392427 -69.784538 359.28143 1.6481351e-38
-10.438759 -69.814674 359.43661 1.6481351e-38
-9.7426405 -69.814674 359.43661 1.6481351e-38
-4.1736965 -69.814674 359.43661 1.6481351e-38
-4.1736965 -69.814674 359.43661 1.6481351e-38
-0.69310653 -69.814674 359.43661 1.6481351e-38
7.6636195 -69.844841 359.59192 1.6481351e-38
20.895576 -69.844841 359.59192 1.6481351e-38
28.580881 -69.905258 359.90295 1.6481351e-38
35.581867 -69.965767 360.21451 1.6481351e-38
37.691055 -69.996063 360.37048 1.6481351e-38
48.222603 -70.087112 360.83926 1.6481351e-38
50.340931 -70.117516 360.99579 1.6481351e-38
56.657745 -70.147949 361.15244 1.6481351e-38
67.178513 -70.178398 361.30923 1.6481351e-38
71.376984 -70.178398 361.30923 1.6481351e-38
80.438744 -70.147949 361.15244 1.6481351e-38
93.850304 -70.239388 361.62323 1.6481351e-38
97.309784 -70.208885 361.46616 1.6481351e-38
99.409927 -70.208885 361.46616 1.6481351e-38
108.19128 -70.917343 365.11362 6.9718915e-39
118.76825 -71.324135 367.20795 2.3341274e-38
127.24612 -71.292679 367.04599 2.3341274e-38
137.19809 -71.292679 367.04599 2.3341274e-38
147.215 -71.324135 367.20795 2.3341274e-38
150.05966 -71.324135 367.20795 2.3341274e-38
152.19318 -71.324135 367.20795 2.3341274e-38
162.8607 -71.324135 367.20795 2.3341274e-38
174.23941 -71.324135 367.20795 2.3341274e-38
186.19319 -71.545113 368.34567 2.3341274e-38
194.12621 -71.576797 368.50876 2.3341274e-38
199.92424 -71.608505 368.67203 2.3341274e-38
212.96501 -71.672005 368.99896 2.3341274e-38
216.44223 -71.640236 368.83542 2.3341274e-38
227.87135 -71.640236 368.83542 2.3341274e-38
234.91045 -71.608505 368.67203 2.3341274e-38
236.33846 -71.608505 368.67203 2.3341274e-38
237.15752 -71.640236 368.83542 2.3341274e-38
237.87184 -71.640236 368.83542 2.3341274e-38
247.158 -71.640236 368.83542 2.3418052e-38
250.24646 -70.300484 361.93777 1.5707878e-38
250.00586 -69.454704 357.58331 1.5707878e-38
249.19934 -69.039398 355.44513 1.5707878e-38
-130.21991 -70.271889 365.43427 2.3341274e-38
-120.15337 -70.179436 364.95349 2.3341274e-38
-106.72412 -70.179436 364.95349 2.3341274e-38
-103.7604 -70.087234 364.474 2.3341274e-38
-98.862579 -70.117943 364.6337 2.3341274e-38
-94.584038 -70.087234 364.474 2.3341274e-38
-80.956467 -69.298141 360.37048 1.8935445e-38
-74.146172 -70.117943 364.6337 1.8935445e-38
-73.439987 -70.117943 364.6337 1.8935445e-38
-64.457298 -70.333656 365.75546 2.3418052e-38
-51.020969 -70.364578 365.91629 2.2957759e-38
-38.316578 -69.178314 359.74738 8.3412193e-39
-26.449472 -69.118561 359.43661 1.6481351e-38
-21.576647 -69.118561 359.43661 1.6481351e-38
-16.696609 -69.088722 359.28143 1.6481351e-38
-15.311584 -69.118561 359.43661 1.6481351e-38
-4.1736965 -69.118561 359.43661 1.6481351e-38
7.6636195 -69.148422 359.59192 1.6481351e-38
10.449294 -69.148422 359.59192 1.6481351e-38
22.298048 -69.178314 359.74738 1.6481351e-38
29.974924 -69.208237 359.90295 1.6481351e-38
36.977119 -69.268143 360.21451 1.6481351e-38
36.977119 -69.268143 360.21451 1.6481351e-38
47.50317 -69.358208 360.68286 1.6481351e-38
55.258865 -69.448509 361.15244 1.6481351e-38
65.107552 -69.508835 361.46616 1.6481351e-38
65.77903 -69.478661 361.30923 1.6481351e-38
79.074173 -69.478661 361.30923 1.6481351e-38
92.409447 -69.508835 361.46616 1.6481351e-38
93.149948 -69.53904 361.62323 1.6481351e-38
98.009834 -69.508835 361.46616 1.6481351e-38
104.3556 -69.53904 361.62323 6.9718915e-39
110.89646 -70.581818 367.04599 6.9718915e-39
124.4027 -70.581818 367.04599 2.3341274e-38
134.35468 -70.581818 367.04599 2.3341274e-38
144.37032 -70.612961 367.20795 2.3341274e-38
156.46019 -70.612961 367.20795 2.3341274e-38
164.99422 -70.612961 367.20795 2.3341274e-38
177.79524 -70.612961 367.20795 2.3341274e-38
191.3562 -70.894501 368.67203 2.3341274e-38
204.20827 -70.894501 368.67203 2.3341274e-38
216.34634 -70.894501 368.67203 2.3341274e-38
222.15678 -70.925919 368.83542 2.3341274e-38
232.66536 -70.863106 368.50876 2.3341274e-38
245.01505 -70.925919 368.83542 2.3418052e-38
250.72932 -69.53904 361.62323 1.5707878e-38
250.60759 -67.800804 352.58389 1.5707878e-38
-133.64122 -69.503113 365.11362 2.3341274e-38
-120.86017 -69.472633 364.95349 2.3341274e-38
-115.20575 -69.472633 364.95349 2.3341274e-38
-108.18517 -69.503113 365.11362 2.3341274e-38
-96.079948 -69.442184 364.79352 2.3341274e-38
-83.050247 -68.600212 360.37048 2.2426381e-39
-72.090797 -69.472633 364.95349 1.8935445e-38
-60.942307 -69.655914 365.91629 2.3418052e-38
-58.842178 -69.686554 366.07724 1.8935445e-38
-56.006264 -69.686554 366.07724 2.3418052e-38
-46.54385 -69.320641 364.15503 2.2957759e-38
-34.817924 -68.452003 359.59192 1.0338689e-38
-33.410652 -68.42244 359.43661 1.6481351e-38
-30.626181 -68.42244 359.43661 1.6481351e-38
-26.449472 -68.42244 359.43661 1.6481351e-38
-18.792175 -68.42244 359.43661 1.6481351e-38
-10.438759 -68.42244 359.43661 1.6481351e-38
-9.7426405 -68.42244 359.43661 1.6481351e-38
-9.7426405 -68.42244 359.43661 1.6481351e-38
3.4836013 -68.42244 359.43661 1.6481351e-38
10.444781 -68.42244 359.43661 1.6481351e-38
13.931389 -68.452003 359.59192 1.6481351e-38
25.084929 -68.481598 359.74738 1.6481351e-38
35.566475 -68.540855 360.05865 1.6481351e-38
48.942657 -68.719246 360.99579 1.6481351e-38
51.761662 -68.749062 361.15244 1.6481351e-38
53.859982 -68.749062 361.15244 1.6481351e-38
54.559425 -68.749062 361.15244 1.6481351e-38
54.559425 -68.749062 361.15244 1.6481351e-38
55.258865 -68.749062 361.15244 1.6481351e-38
56.657745 -68.749062 361.15244 1.6481351e-38
68.548241 -68.749062 361.15244 1.6481351e-38
81.873154 -68.778915 361.30923 1.6481351e-38
83.272644 -68.778915 361.30923 1.6481351e-38
96.609734 -68.808784 361.46616 1.6481351e-38
110.08849 -69.809387 366.7225 6.9718915e-39
118.05708 -69.901794 367.20795 2.3341274e-38
129.37869 -69.870964 367.04599 2.3341274e-38
132.93297 -69.870964 367.04599 2.3341274e-38
143.65915 -69.901794 367.20795 2.3341274e-38
152.19318 -69.901794 367.20795 2.3341274e-38
165.70538 -69.901794 367.20795 2.3341274e-38
167.83888 -69.901794 367.20795 2.3341274e-38
172.1059 -69.901794 367.20795 2.3341274e-38
183.17755 -70.056351 368.0199 2.3341274e-38
189.84409 -70.149422 368.50876 2.3341274e-38
202.87013 -70.211601 368.83542 2.3341274e-38
207.87038 -70.211601 368.83542 2.3341274e-38
209.2063 -70.180496 368.67203 2.3341274e-38
216.34634 -70.180496 368.67203 2.3341274e-38
220.82602 -70.242729 368.99896 2.3341274e-38
223.68457 -70.242729 368.99896 2.3341274e-38
234.7025 -70.11837 368.34567 2.3341274e-38
245.62051 -70.180496 368.67203 2.3418052e-38
248.9528 -68.928543 362.09525 6.7460932e-39
251.3781 -66.77845 350.80042 1.5707878e-38
-129.51218 -68.856422 365.43427 2.3341274e-38
-126.02885 -68.886665 365.59479 2.3341274e-38
-112.37854 -68.765831 364.95349 2.3341274e-38
-109.59939 -68.796005 365.11362 2.3341274e-38
-98.156395 -68.705574 364.6337 2.3341274e-38
-92.264381 -68.525429 363.67761 2.3418052e-38
-84.519302 -67.961143 360.68286 2.3418052e-38
-82.316673 -67.872894 360.21451 2.2426381e-39
-82.316673 -67.872894 360.21451 2.2426381e-39
-81.58374 -67.843529 360.05865 2.2426381e-39
-77.399803 -67.843529 360.05865 1.8935445e-38
-73.151527 -68.435707 363.20145 1.8935445e-38
-62.332233 -68.916946 365.75546 1.8935445e-38
-57.424221 -68.977577 366.07724 2.2957759e-38
-44.995518 -68.405853 363.04303 2.2957759e-38
-34.10677 -67.726326 359.43661 1.6481351e-38
-27.841709 -67.726326 359.43661 1.6481351e-38
-14.615466 -67.726326 359.43661 1.6481351e-38
-5.5659323 -67.726326 359.43661 1.6481351e-38
3.4836013 -67.726326 359.43661 1.6481351e-38
13.931389 -67.755585 359.59192 1.6481351e-38
19.494316 -67.726326 359.43661 1.6481351e-38
22.994768 -67.784874 359.74738 1.6481351e-38
25.074089 -67.755585 359.59192 1.6481351e-38
25.074089 -67.755585 359.59192 1.6481351e-38
32.777184 -67.843529 360.05865 1.6481351e-38
35.566475 -67.843529 360.05865 1.6481351e-38
43.311981 -67.961143 360.68286 1.6481351e-38
48.201702 -67.961143 360.68286 1.6481351e-38
53.160542 -68.049622 361.15244 1.6481351e-38
61.553833 -68.049622 361.15244 1.6481351e-38
72.076729 -68.07917 361.30923 1.6481351e-38
74.87571 -68.07917 361.30923 1.6481351e-38
82.572899 -68.07917 361.30923 1.6481351e-38
95.909683 -68.108734 361.46616 1.6481351e-38
104.3556 -68.138336 361.62323 6.9718915e-39
119.47942 -69.190628 367.20795 2.3341274e-38
120.13757 -69.16011 367.04599 2.3341274e-38
131.51126 -69.16011 367.04599 2.3341274e-38
140.04152 -69.16011 367.04599 2.3341274e-38
141.46323 -69.16011 367.04599 2.3341274e-38
151.48201 -69.190628 367.20795 2.3341274e-38
164.99422 -69.190628 367.20795 2.3341274e-38
172.02998 -69.16011 367.04599 2.3341274e-38
173.45171 -69.16011 367.04599 2.3341274e-38
179.53445 -69.312965 367.85721 2.3341274e-38
183.17755 -69.343613 368.0199 2.3341274e-38
185.31578 -69.343613 368.0199 2.3341274e-38
190.6422 -69.466492 368.67203 2.3341274e-38
204.20827 -69.466492 368.67203 2.3341274e-38
210.63431 -69.466492 368.67203 2.3341274e-38
221.44247 -69.497276 368.83542 2.3341274e-38
226.24217 -69.43573 368.50876 2.3341274e-38
236.33846 -69.466492 368.67203 2.3341274e-38
243.4785 -69.466492 368.67203 2.3341274e-38
248.80719 -69.558937 369.16263 3.9024831e-39
248.09 -68.376022 362.8847 6.7460932e-39
250.60759 -66.435112 352.58389 1.5707878e-38
-131.57761 -68.118774 365.27386 2.3341274e-38
-124.55805 -68.148689 365.43427 2.3341274e-38
-113.79214 -68.059029 364.95349 2.3341274e-38
-110.96494 -68.059029 364.95349 2.3341274e-38
-104.60371 -68.059029 364.95349 2.3341274e-38
-91.320602 -67.64373 362.72653 1.0982862e-38
-78.063354 -67.117172 359.90295 1.8935445e-38
-72.44812 -67.7323 363.20145 1.8935445e-38
-70.460892 -67.850746 363.83661 1.8935445e-38
-69.756256 -67.850746 363.83661 1.8935445e-38
-58.764629 -68.178627 365.59479 2.2957759e-38
-57.398972 -68.238579 365.91629 2.2957759e-38
-55.932453 -68.178627 365.59479 2.2957759e-38
-53.831966 -68.208588 365.75546 2.2957759e-38
-52.323273 -68.08889 365.11362 2.2957759e-38
-40.406734 -67.088158 359.74738 2.2957759e-38
-31.308777 -67.001266 359.28143 1.6481351e-38
-30.626181 -67.030205 359.43661 1.6481351e-38
-20.871513 -67.001266 359.28143 1.6481351e-38
-7.6542864 -67.030205 359.43661 1.6481351e-38
0.69912946 -67.030205 359.43661 1.6481351e-38
8.3564272 -67.030205 359.43661 1.6481351e-38
16.717064 -67.059166 359.59192 1.6481351e-38
21.591995 -67.059166 359.59192 1.6481351e-38
29.265247 -67.088158 359.74738 1.6481351e-38
29.974924 -67.117172 359.90295 1.6481351e-38
39.784836 -67.204361 360.37048 1.6481351e-38
41.198528 -67.233475 360.52661 1.6481351e-38
51.739208 -67.320969 360.99579 1.6481351e-38
60.181068 -67.379425 361.30923 1.6481351e-38
65.079285 -67.379425 361.30923 1.6481351e-38
67.848801 -67.350182 361.15244 1.6481351e-38
69.247688 -67.350182 361.15244 1.6481351e-38
79.773918 -67.379425 361.30923 1.6481351e-38
79.773918 -67.379425 361.30923 1.6481351e-38
81.873154 -67.379425 361.30923 1.6481351e-38
91.048889 -67.437981 361.62323 1.6481351e-38
103.65524 -67.437981 361.62323 2.3418052e-38
113.73988 -68.449257 367.04599 2.3418052e-38
125.11356 -68.449257 367.04599 2.3341274e-38
133.70279 -68.479454 367.20795 2.3341274e-38
133.70279 -68.479454 367.20795 2.3341274e-38
141.52565 -68.479454 367.20795 2.3341274e-38
151.48201 -68.479454 367.20795 2.3341274e-38
154.39481 -68.509689 367.37006 2.3341274e-38
157.88252 -68.479454 367.20795 2.3341274e-38
160.08667 -68.509689 367.37006 2.3341274e-38
172.02998 -68.449257 367.04599 2.3341274e-38
185.31578 -68.630875 368.0199 2.3341274e-38
192.07021 -68.752487 368.67203 2.3341274e-38
204.20827 -68.752487 368.67203 2.3341274e-38
212.06232 -68.752487 368.67203 2.3341274e-38
212.06232 -68.752487 368.67203 2.3341274e-38
212.77632 -68.752487 368.67203 2.3341274e-38
220.11137 -68.813454 368.99896 2.3341274e-38
222.15678 -68.782959 368.83542 2.3341274e-38
224.20038 -68.752487 368.67203 2.3341274e-38
226.95586 -68.722046 368.50876 2.3341274e-38
239.08855 -68.722046 368.50876 2.3341274e-38
248.19821 -67.702751 363.04303 3.9024831e-39
251.65343 -65.6688 352.13632 1.5707878e-38
-128.37859 -67.589348 366.23834 2.3341274e-38
-124.01368 -67.529915 365.91629 2.3341274e-38
-120.91319 -67.381775 365.11362 2.3341274e-38
-109.55133 -67.352226 364.95349 2.3341274e-38
-102.4833 -67.352226 364.95349 2.3341274e-38
-101.7765 -67.352226 364.95349 2.3341274e-38
-87.313423 -66.564079 360.68286 2.3418052e-38
-82.281059 -66.448883 360.05865 2.2426381e-39
-82.281059 -66.448883 360.05865 2.2426381e-39
-82.281059 -66.448883 360.05865 2.2426381e-39
-71.744705 -67.028893 363.20145 1.8935445e-38
-69.725769 -67.11676 363.67761 1.8935445e-38
-69.725769 -67.11676 363.67761 1.8935445e-38
-57.323357 -67.440956 365.43427 2.2957759e-38
-47.703876 -66.853828 362.25287 2.2957759e-38
-45.381863 -66.535248 360.52661 2.2957759e-38
-36.195126 -66.334084 359.43661 1.6481351e-38
-23.654783 -66.30545 359.28143 1.6481351e-38
-23.654783 -66.30545 359.28143 1.6481351e-38
-21.576647 -66.334084 359.43661 1.6481351e-38
-17.392427 -66.30545 359.28143 1.6481351e-38
-5.5659323 -66.334084 359.43661 1.6481351e-38
6.270782 -66.362747 359.59192 1.6481351e-38
18.102079 -66.334084 359.43661 1.6481351e-38
29.961967 -66.391434 359.74738 1.6481351e-38
32.763008 -66.420151 359.90295 1.6481351e-38
39.767616 -66.477646 360.21451 1.6481351e-38
41.198528 -66.535248 360.52661 1.6481351e-38
48.201702 -66.564079 360.68286 1.6481351e-38
59.481323 -66.67968 361.30923 1.6481351e-38
70.677238 -66.67968 361.30923 1.6481351e-38
78.442543 -66.737625 361.62323 1.6481351e-38
79.808571 -66.708641 361.46616 1.6481351e-38
88.209152 -66.708641 361.46616 1.6481351e-38
93.109489 -66.708641 361.46616 1.6481351e-38
95.909683 -66.708641 361.46616 1.6481351e-38
105.71037 -66.708641 361.46616 6.9718915e-39
120.19058 -67.768288 367.20795 2.3341274e-38
127.95698 -67.738403 367.04599 2.3341274e-38
132.28046 -67.768288 367.20795 2.3341274e-38
145.08148 -67.768288 367.20795 2.3341274e-38
145.08148 -67.768288 367.20795 2.3341274e-38
151.48201 -67.768288 367.20795 2.3341274e-38
158.59369 -67.768288 367.20795 2.3341274e-38
171.31914 -67.738403 367.04599 2.3341274e-38
181.91296 -67.978256 368.34567 2.3341274e-38
185.31578 -67.918129 368.0199 2.3341274e-38
187.61995 -67.978256 368.34567 2.3341274e-38
196.44125 -68.068634 368.83542 2.3341274e-38
200.54941 -68.008354 368.50876 2.3341274e-38
205.01309 -68.068634 368.83542 2.3341274e-38
212.77632 -68.038483 368.67203 2.3341274e-38
223.58543 -68.068634 368.83542 2.3341274e-38
234.09274 -68.008354 368.50876 2.3341274e-38
239.80225 -68.008354 368.50876 2.3341274e-38
249.19052 -68.038483 368.67203 2.3418052e-38
249.19052 -68.038483 368.67203 2.3418052e-38
250.60759 -65.06942 352.58389 1.5707878e-38
-126.90415 -66.850639 366.07724 2.3341274e-38
-113.13496 -66.674667 365.11362 2.3341274e-38
-101.82115 -66.674667 365.11362 2.3341274e-38
-92.968712 -66.41243 363.67761 1.0982862e-38
-85.144028 -65.80851 360.37048 2.3418052e-38
-73.913193 -65.751564 360.05865 1.8935445e-38
-73.215866 -65.751564 360.05865 1.8935445e-38
-73.215866 -65.751564 360.05865 1.8935445e-38
-69.634483 -66.325478 363.20145 1.8935445e-38
-59.394398 -66.674667 365.11362 2.2957759e-38
-46.060139 -65.80851 360.37048 2.2957759e-38
-39.675713 -65.63797 359.43661 1.0338689e-38
-39.675713 -65.63797 359.43661 1.0338689e-38
-28.525507 -65.609634 359.28143 1.6481351e-38
-23.654783 -65.609634 359.28143 1.6481351e-38
-21.576647 -65.63797 359.43661 1.6481351e-38
-13.919349 -65.63797 359.43661 1.6481351e-38
-12.527112 -65.63797 359.43661 1.6481351e-38
-4.8698144 -65.63797 359.43661 1.6481351e-38
-2.0853424 -65.63797 359.43661 1.6481351e-38
-0.69310653 -65.63797 359.43661 1.6481351e-38
0.0030114658 -65.63797 359.43661 1.6481351e-38
2.7886879 -65.666328 359.59192 1.6481351e-38
5.5719552 -65.63797 359.43661 1.6481351e-38
11.145713 -65.666328 359.59192 1.6481351e-38
24.388208 -65.694717 359.74738 1.6481351e-38
36.945137 -65.723129 359.90295 1.6481351e-38
48.222603 -65.894112 360.83926 1.6481351e-38
61.553833 -65.951302 361.15244 1.6481351e-38
69.247688 -65.951302 361.15244 1.6481351e-38
75.575455 -65.979935 361.30923 1.6481351e-38
79.108521 -66.008591 361.46616 1.6481351e-38
80.473663 -65.979935 361.30923 1.6481351e-38
92.409447 -66.008591 361.46616 1.6481351e-38
104.3556 -66.037277 361.62323 1.5886135e-38
107.25021 -66.094711 361.93777 6.9718915e-39
118.00501 -67.027542 367.04599 2.3341274e-38
125.16876 -67.057121 367.20795 2.3341274e-38
137.25864 -67.057121 367.20795 2.3341274e-38
145.08148 -67.057121 367.20795 2.3341274e-38
157.88252 -67.057121 367.20795 2.3341274e-38
168.47572 -67.027542 367.04599 2.3341274e-38
177.00598 -67.027542 367.04599 2.3341274e-38
184.68471 -67.235123 368.18271 2.3341274e-38
192.69884 -67.29467 368.50876 2.3341274e-38
206.44174 -67.354317 368.83542 2.3341274e-38
215.63234 -67.324478 368.67203 2.3341274e-38
217.06035 -67.324478 368.67203 2.3341274e-38
217.87086 -67.354317 368.83542 2.3341274e-38
220.82602 -67.384178 368.99896 2.3341274e-38
234.19644 -67.324478 368.67203 2.3341274e-38
236.94749 -67.29467 368.50876 2.3341274e-38
249.30096 -67.354317 368.83542 2.3418052e-38
249.01593 -66.703926 365.27386 3.9024831e-39
249.01593 -66.703926 365.27386 3.9024831e-39
249.92038 -66.008591 361.46616 1.5707878e-38
252.16379 -64.087898 350.94836 1.5707878e-38
-126.19517 -66.141663 366.07724 2.3341274e-38
-114.54918 -65.967552 365.11362 2.3341274e-38
-108.18517 -65.967552 365.11362 2.3341274e-38
-99.612411 -65.909721 364.79352 2.3341274e-38
-93.796013 -65.794357 364.15503 1.0982862e-38
-79.42305 -64.997993 359.74738 2.3418052e-38
-77.299469 -64.96991 359.59192 1.8935445e-38
-72.487183 -65.026108 359.90295 1.8935445e-38
-64.513527 -65.422203 362.09525 1.8935445e-38
-51.643551 -65.11058 360.37048 2.2957759e-38
-51.643551 -65.11058 360.37048 2.2957759e-38
-46.000381 -65.026108 359.90295 2.2957759e-38
-34.092045 -64.913818 359.28143 1.6481351e-38
-31.322298 -64.941849 359.43661 1.6481351e-38
-27.133871 -64.913818 359.28143 1.6481351e-38
-18.792175 -64.941849 359.43661 1.6481351e-38
-6.9581685 -64.941849 359.43661 1.6481351e-38
0.69912946 -64.941849 359.43661 1.6481351e-38
4.8758373 -64.941849 359.43661 1.6481351e-38
9.7486629 -64.941849 359.43661 1.6481351e-38
13.229254 -64.941849 359.43661 1.6481351e-38
21.591995 -64.96991 359.59192 1.6481351e-38
22.288414 -64.96991 359.59192 1.6481351e-38
27.871807 -64.997993 359.74738 1.6481351e-38
39.053089 -65.054237 360.05865 1.6481351e-38
51.04007 -65.223557 360.99579 1.6481351e-38
51.04007 -65.223557 360.99579 1.6481351e-38
54.559425 -65.251862 361.15244 1.6481351e-38
66.449921 -65.251862 361.15244 1.6481351e-38
69.977493 -65.28019 361.30923 1.6481351e-38
81.173409 -65.28019 361.30923 1.6481351e-38
86.109009 -65.30854 361.46616 1.6481351e-38
95.209641 -65.30854 361.46616 1.6481351e-38
107.99815 -65.422203 362.09525 6.9718915e-39
123.03526 -66.345955 367.20795 2.3341274e-38
132.22211 -66.316689 367.04599 2.3341274e-38
144.30664 -66.316689 367.04599 2.3341274e-38
155.10629 -66.375237 367.37006 2.3341274e-38
155.10629 -66.375237 367.37006 2.3341274e-38
156.52925 -66.375237 367.37006 2.3341274e-38
165.77853 -66.375237 367.37006 2.3341274e-38
174.95058 -66.345955 367.20795 2.3341274e-38
182.54555 -66.522064 368.18271 2.3341274e-38
189.76006 -66.551506 368.34567 2.3341274e-38
196.35422 -66.610474 368.67203 2.3341274e-38
202.06625 -66.610474 368.67203 2.3341274e-38
203.58446 -66.639999 368.83542 2.3341274e-38
207.87038 -66.639999 368.83542 2.3341274e-38
207.87038 -66.639999 368.83542 2.3341274e-38
207.87038 -66.639999 368.83542 2.3341274e-38
217.77435 -66.610474 368.67203 2.3341274e-38
221.44247 -66.639999 368.83542 2.3341274e-38
225.01407 -66.639999 368.83542 2.3341274e-38
229.81061 -66.580978 368.50876 2.3341274e-38
234.19644 -66.610474 368.67203 2.3341274e-38
234.91045 -66.610474 368.67203 2.3341274e-38
237.66118 -66.580978 368.50876 2.3341274e-38
242.05049 -66.610474 368.67203 2.3341274e-38
249.92038 -65.30854 361.46616 1.5707878e-38
251.27219 -63.354786 350.65262 1.5707878e-38
-132.93411 -65.260437 365.11362 2.3341274e-38
-121.88768 -65.403908 365.91629 2.3341274e-38
-115.9634 -65.260437 365.11362 2.3341274e-38
-104.87967 -65.403908 365.91629 2.3341274e-38
-91.280823 -64.805527 362.56851 1.0982862e-38
-83.639519 -64.329086 359.90295 2.3418052e-38
-79.42305 -64.301277 359.74738 1.6481351e-38
-74.481613 -64.245735 359.43661 1.8935445e-38
-71.790161 -64.329086 359.90295 1.8935445e-38
-63.425907 -64.329086 359.90295 1.8935445e-38
-50.160812 -64.301277 359.74738 2.3418052e-38
-47.394421 -64.329086 359.90295 1.0338689e-38
-34.787865 -64.217995 359.28143 1.6481351e-38
-23.665001 -64.245735 359.43661 1.6481351e-38
-22.968882 -64.245735 359.43661 1.6481351e-38
-19.488293 -64.245735 359.43661 1.6481351e-38
-18.096056 -64.245735 359.43661 1.6481351e-38
-8.3504047 -64.245735 359.43661 1.6481351e-38
-7.6542864 -64.245735 359.43661 1.6481351e-38
-6.9581685 -64.245735 359.43661 1.6481351e-38
-4.1736965 -64.245735 359.43661 1.6481351e-38
6.2680736 -64.245735 359.43661 1.6481351e-38
15.317607 -64.245735 359.43661 1.6481351e-38
22.984833 -64.273491 359.59192 1.6481351e-38
33.46003 -64.329086 359.90295 1.6481351e-38
40.447735 -64.356918 360.05865 1.6481351e-38
45.387905 -64.440559 360.52661 1.6481351e-38
50.319103 -64.496437 360.83926 1.6481351e-38
59.455513 -64.552422 361.15244 1.6481351e-38
60.154953 -64.552422 361.15244 1.6481351e-38
69.977493 -64.580444 361.30923 1.6481351e-38
81.908714 -64.608498 361.46616 1.6481351e-38
88.170853 -64.580444 361.30923 1.6481351e-38
98.009834 -64.608498 361.46616 1.6481351e-38
107.11047 -64.608498 361.46616 6.9718915e-39
114.50124 -65.634781 367.20795 6.9718915e-39
125.87994 -65.634781 367.20795 2.3341274e-38
139.33066 -65.605835 367.04599 2.3341274e-38
144.30664 -65.605835 367.04599 2.3341274e-38
144.30664 -65.605835 367.04599 2.3341274e-38
147.215 -65.634781 367.20795 2.3341274e-38
151.48201 -65.634781 367.20795 2.3341274e-38
163.57187 -65.634781 367.20795 2.3341274e-38
164.99422 -65.634781 367.20795 2.3341274e-38
174.87341 -65.605835 367.04599 2.3341274e-38
182.54555 -65.809006 368.18271 2.3341274e-38
188.4167 -65.867294 368.50876 2.3341274e-38
194.92621 -65.896469 368.67203 2.3341274e-38
198.58421 -65.925674 368.83542 2.3341274e-38
199.21024 -65.896469 368.67203 2.3341274e-38
206.35028 -65.896469 368.67203 2.3341274e-38
212.87062 -65.925674 368.83542 2.3341274e-38
224.3992 -65.954903 368.99896 2.3341274e-38
226.34239 -65.896469 368.67203 2.3341274e-38
234.91045 -65.896469 368.67203 2.3341274e-38
237.66118 -65.867294 368.50876 2.3341274e-38
241.33649 -65.896469 368.67203 2.3341274e-38
241.33649 -65.896469 368.67203 2.3341274e-38
243.58641 -65.925674 368.83542 2.3341274e-38
251.03918 -64.356918 360.05865 1.5707878e-38
250.00586 -63.914474 357.58331 1.5707878e-38
251.95129 -62.675678 350.65262 1.5707878e-38
-128.54829 -64.837784 366.7225 2.3341274e-38
-115.9634 -64.553329 365.11362 2.3341274e-38
-104.87967 -64.695244 365.91629 2.3341274e-38
-103.5534 -64.752182 366.23834 2.3341274e-38
-89.019135 -63.991829 361.93777 1.0982862e-38
-87.313423 -63.769955 360.68286 1.0982862e-38
-78.02961 -63.604557 359.74738 1.6481351e-38
-64.819954 -63.632065 359.90295 1.8935445e-38
-57.128014 -63.604557 359.74738 2.2957759e-38
-50.160812 -63.604557 359.74738 1.0338689e-38
-49.464092 -63.604557 359.74738 1.0338689e-38
-48.767372 -63.604557 359.74738 1.0338689e-38
-35.483681 -63.522179 359.28143 1.6481351e-38
-29.233944 -63.549614 359.43661 1.6481351e-38
-18.096056 -63.549614 359.43661 1.6481351e-38
-9.7426405 -63.549614 359.43661 1.6481351e-38
-0.69310653 -63.549614 359.43661 1.6481351e-38
0.69912946 -63.549614 359.43661 1.6481351e-38
3.4836013 -63.549614 359.43661 1.6481351e-38
9.7486629 -63.549614 359.43661 1.6481351e-38
18.80632 -63.577076 359.59192 1.6481351e-38
22.278788 -63.549614 359.43661 1.6481351e-38
35.551094 -63.632065 359.90295 1.6481351e-38
36.248116 -63.632065 359.90295 1.6481351e-38
36.248116 -63.632065 359.90295 1.6481351e-38
46.784363 -63.742329 360.52661 1.6481351e-38
56.657745 -63.852978 361.15244 1.6481351e-38
64.435486 -63.936214 361.62323 1.6481351e-38
64.435486 -63.936214 361.62323 1.6481351e-38
69.247688 -63.852978 361.15244 1.6481351e-38
69.947128 -63.852978 361.15244 1.6481351e-38
79.808571 -63.908447 361.46616 1.6481351e-38
82.608765 -63.908447 361.46616 1.6481351e-38
88.870598 -63.880699 361.30923 1.6481351e-38
94.468559 -63.880699 361.30923 1.6481351e-38
105.71037 -63.908447 361.46616 1.5886135e-38
115.87244 -64.894981 367.04599 6.9718915e-39
116.5833 -64.894981 367.04599 2.3418052e-38
127.30227 -64.923615 367.20795 2.3341274e-38
129.43578 -64.923615 367.20795 2.3341274e-38
137.19809 -64.894981 367.04599 2.3341274e-38
142.94798 -64.923615 367.20795 2.3341274e-38
155.10629 -64.952271 367.37006 2.3341274e-38
157.24074 -64.952271 367.37006 2.3341274e-38
169.9724 -64.923615 367.20795 2.3341274e-38
179.53445 -65.038406 367.85721 2.3341274e-38
184.76645 -65.124763 368.34567 2.3341274e-38
187.07217 -65.182465 368.67203 2.3341274e-38
192.07021 -65.182465 368.67203 2.3341274e-38
199.92424 -65.182465 368.67203 2.3341274e-38
208.67719 -65.240273 368.99896 2.3341274e-38
217.06035 -65.182465 368.67203 2.3341274e-38
222.77237 -65.182465 368.67203 2.3341274e-38
225.11385 -65.240273 368.99896 2.3341274e-38
228.48441 -65.182465 368.67203 2.3341274e-38
234.91045 -65.182465 368.67203 2.3341274e-38
242.7645 -65.182465 368.67203 2.3341274e-38
242.7645 -65.182465 368.67203 2.3341274e-38
249.01593 -64.581657 365.27386 3.9024831e-39
249.24899 -62.683273 354.53659 1.5707878e-38
251.27219 -61.996574 350.65262 1.5707878e-38
-131.80902 -63.986576 365.91629 2.3341274e-38
-118.08474 -63.846214 365.11362 2.3341274e-38
-104.87967 -63.986576 365.91629 2.3341274e-38
-93.878166 -63.734367 364.474 1.0982862e-38
-82.209923 -62.907837 359.74738 1.6481351e-38
-80.119766 -62.907837 359.74738 1.6481351e-38
-77.299469 -62.880657 359.59192 1.6481351e-38
-68.972252 -62.907837 359.74738 2.3418052e-38
-56.40691 -62.880657 359.59192 2.2957759e-38
-46.657047 -62.880657 359.59192 1.0338689e-38
-43.174953 -62.880657 359.59192 1.0338689e-38
-39.675713 -62.853497 359.43661 1.6481351e-38
-33.396229 -62.826363 359.28143 1.6481351e-38
-29.930063 -62.853497 359.43661 1.6481351e-38
-18.792175 -62.853497 359.43661 1.6481351e-38
-9.0465221 -62.853497 359.43661 1.6481351e-38
2.7874835 -62.853497 359.43661 1.6481351e-38
13.931389 -62.880657 359.59192 1.6481351e-38
25.781649 -62.907837 359.74738 1.6481351e-38
27.871807 -62.907837 359.74738 1.6481351e-38
31.368967 -62.935043 359.90295 1.6481351e-38
31.368967 -62.935043 359.90295 1.6481351e-38
33.46003 -62.935043 359.90295 1.6481351e-38
46.066177 -63.0168 360.37048 1.6481351e-38
48.921436 -63.09877 360.83926 1.6481351e-38
50.319103 -63.09877 360.83926 1.6481351e-38
53.160542 -63.153538 361.15244 1.6481351e-38
53.883366 -63.180954 361.30923 1.6481351e-38
58.056629 -63.153538 361.15244 1.6481351e-38
65.77903 -63.180954 361.30923 1.6481351e-38
79.108521 -63.208397 361.46616 1.6481351e-38
83.308815 -63.208397 361.46616 1.6481351e-38
91.009346 -63.208397 361.46616 1.6481351e-38
98.709885 -63.208397 361.46616 1.6481351e-38
100.10998 -63.208397 361.46616 1.6481351e-38
104.3556 -63.235863 361.62323 1.6481351e-38
108.6049 -63.263351 361.78043 6.9718915e-39
123.03526 -64.212448 367.20795 2.3341274e-38
130.08954 -64.184128 367.04599 2.3341274e-38
132.93297 -64.184128 367.04599 2.3341274e-38
135.77638 -64.184128 367.04599 2.3341274e-38
140.81447 -64.212448 367.20795 2.3341274e-38
141.52565 -64.212448 367.20795 2.3341274e-38
150.77084 -64.212448 367.20795 2.3341274e-38
159.37518 -64.240791 367.37006 2.3341274e-38
165.77853 -64.240791 367.37006 2.3341274e-38
170.68356 -64.212448 367.20795 2.3341274e-38
172.1059 -64.212448 367.20795 2.3341274e-38
175.58426 -64.184128 367.04599 2.3341274e-38
188.4167 -64.439911 368.50876 2.3341274e-38
192.15532 -64.497032 368.83542 2.3341274e-38
199.92424 -64.46846 368.67203 2.3341274e-38
212.34453 -64.554253 369.16263 2.3341274e-38
212.34453 -64.554253 369.16263 2.3341274e-38
212.96501 -64.525635 368.99896 2.3341274e-38
213.67964 -64.525635 368.99896 2.3341274e-38
215.01358 -64.497032 368.83542 2.3341274e-38
218.3916 -64.439911 368.50876 2.3341274e-38
229.19841 -64.46846 368.67203 2.3341274e-38
235.52011 -64.439911 368.50876 2.3341274e-38
246.93912 -64.439911 368.50876 2.3418052e-38
249.01593 -63.874237 365.27386 3.9024831e-39
250.50145 -61.629074 352.4346 1.5707878e-38
-131.10036 -63.277908 365.91629 2.3341274e-38
-126.41761 -63.417328 366.7225 2.3341274e-38
-118.08474 -63.139103 365.11362 2.3341274e-38
-115.9634 -63.139103 365.11362 2.3341274e-38
-111.01362 -63.139103 365.11362 2.3341274e-38
-102.79887 -63.305744 366.07724 2.3341274e-38
-89.837311 -62.671673 362.41061 1.0982862e-38
-81.513206 -62.211117 359.74738 1.6481351e-38
-80.816483 -62.211117 359.74738 1.6481351e-38
-69.668968 -62.211117 359.74738 2.3418052e-38
-60.559254 -62.157379 359.43661 1.8935445e-38
-55.686428 -62.157379 359.43661 2.2957759e-38
-46.657047 -62.184238 359.59192 1.6481351e-38
-39.675713 -62.157379 359.43661 1.6481351e-38
-32.700413 -62.130547 359.28143 1.6481351e-38
-30.626181 -62.157379 359.43661 1.6481351e-38
-23.665001 -62.157379 359.43661 1.6481351e-38
-16.007702 -62.157379 359.43661 1.6481351e-38
-13.22323 -62.157379 359.43661 1.6481351e-38
-9.7426405 -62.157379 359.43661 1.6481351e-38
1.3952475 -62.157379 359.43661 1.6481351e-38
9.0525455 -62.157379 359.43661 1.6481351e-38
13.229254 -62.157379 359.43661 1.6481351e-38
16.020645 -62.184238 359.59192 1.6481351e-38
28.568527 -62.211117 359.74738 1.6481351e-38
37.658443 -62.26495 360.05865 1.6481351e-38
40.46524 -62.291901 360.21451 1.6481351e-38
45.387905 -62.345871 360.52661 1.6481351e-38
47.48259 -62.345871 360.52661 1.6481351e-38
56.633171 -62.427006 360.99579 1.6481351e-38
67.149361 -62.454094 361.15244 1.6481351e-38
76.974937 -62.481209 361.30923 1.6481351e-38
77.70842 -62.50835 361.46616 1.6481351e-38
81.908714 -62.50835 361.46616 1.6481351e-38
94.50959 -62.50835 361.46616 1.6481351e-38
94.50959 -62.50835 361.46616 1.6481351e-38
102.16575 -62.481209 361.30923 1.6481351e-38
107.11047 -62.50835 361.46616 2.3418052e-38
116.63474 -63.501278 367.20795 2.3418052e-38
125.16876 -63.501278 367.20795 2.3341274e-38
127.24612 -63.47327 367.04599 2.3341274e-38
139.33066 -63.47327 367.04599 2.3341274e-38
147.215 -63.501278 367.20795 2.3341274e-38
159.37518 -63.529308 367.37006 2.3341274e-38
164.35556 -63.529308 367.37006 2.3341274e-38
165.06705 -63.529308 367.37006 2.3341274e-38
165.06705 -63.529308 367.37006 2.3341274e-38
172.02998 -63.47327 367.04599 2.3341274e-38
181.1996 -63.698021 368.34567 2.3341274e-38
192.69884 -63.726227 368.50876 2.3341274e-38
197.69466 -63.726227 368.50876 2.3341274e-38
197.69466 -63.726227 368.50876 2.3341274e-38
197.69466 -63.726227 368.50876 2.3341274e-38
207.33984 -63.839302 369.16263 2.3341274e-38
219.20236 -63.754459 368.67203 2.3341274e-38
226.34239 -63.754459 368.67203 2.3341274e-38
230.62642 -63.754459 368.67203 2.3341274e-38
231.34042 -63.754459 368.67203 2.3341274e-38
237.76646 -63.754459 368.67203 2.3341274e-38
238.37486 -63.726227 368.50876 2.3341274e-38
248.47652 -63.754459 368.67203 2.3418052e-38
249.01593 -63.166813 365.27386 3.9024831e-39
251.07768 -60.920719 352.2854 1.5707878e-38
-125.70737 -62.7071 366.7225 2.3341274e-38
-119.55141 -62.459393 365.27386 2.3341274e-38
-106.8178 -62.459393 365.27386 2.3341274e-38
-103.46233 -62.569244 365.91629 2.3341274e-38
-98.199425 -62.377254 364.79352 2.3341274e-38
-89.837311 -61.969795 362.41061 1.0982862e-38
-77.266083 -61.461262 359.43661 1.6481351e-38
-71.001022 -61.461262 359.43661 2.3418052e-38
-68.275528 -61.514397 359.74738 2.3418052e-38
-58.496166 -61.48782 359.59192 2.3418052e-38
-47.353466 -61.48782 359.59192 1.6481351e-38
-36.179497 -61.434727 359.28143 1.6481351e-38
-26.449472 -61.461262 359.43661 1.6481351e-38
-20.18441 -61.461262 359.43661 1.6481351e-38
-11.13007 -61.434727 359.28143 1.6481351e-38
0.0030114658 -61.461262 359.43661 1.6481351e-38
5.5719552 -61.461262 359.43661 1.6481351e-38
9.7486629 -61.461262 359.43661 1.6481351e-38
13.23497 -61.48782 359.59192 1.6481351e-38
13.931389 -61.48782 359.59192 1.6481351e-38
22.974905 -61.461262 359.43661 1.6481351e-38
29.961967 -61.514397 359.74738 1.6481351e-38
36.295204 -61.620949 360.37048 1.6481351e-38
44.709042 -61.674362 360.68286 1.6481351e-38
53.859982 -61.754654 361.15244 1.6481351e-38
64.407501 -61.8083 361.46616 1.6481351e-38
72.808083 -61.8083 361.46616 1.6481351e-38
77.70842 -61.8083 361.46616 1.6481351e-38
77.70842 -61.8083 361.46616 1.6481351e-38
79.773918 -61.781467 361.30923 1.6481351e-38
83.308815 -61.8083 361.46616 1.6481351e-38
89.609253 -61.8083 361.46616 1.6481351e-38
91.709396 -61.8083 361.46616 1.6481351e-38
102.21012 -61.8083 361.46616 1.6481351e-38
113.24043 -62.486816 365.43427 6.9718915e-39
115.11082 -62.734745 366.88419 6.9718915e-39
120.13757 -62.762413 367.04599 2.3418052e-38
128.66783 -62.762413 367.04599 2.3341274e-38
137.19809 -62.762413 367.04599 2.3341274e-38
139.39214 -62.790108 367.20795 2.3341274e-38
152.26036 -62.817825 367.37006 2.3341274e-38
157.88252 -62.790108 367.20795 2.3341274e-38
171.31914 -62.762413 367.04599 2.3341274e-38
174.16255 -62.762413 367.04599 2.3341274e-38
182.07414 -63.040455 368.67203 2.3341274e-38
185.72644 -63.068394 368.83542 2.3341274e-38
185.72644 -63.068394 368.83542 2.3341274e-38
192.69884 -63.012539 368.50876 2.3341274e-38
200.72717 -63.068394 368.83542 2.3341274e-38
204.29877 -63.068394 368.83542 2.3341274e-38
212.62749 -63.208462 369.65457 2.3341274e-38
223.78378 -63.124348 369.16263 2.3341274e-38
228.78847 -63.124348 369.16263 2.3341274e-38
237.76646 -63.040455 368.67203 2.3341274e-38
244.1925 -63.040455 368.67203 2.3341274e-38
244.1925 -63.040455 368.67203 2.3341274e-38
244.1925 -63.040455 368.67203 2.3341274e-38
244.90651 -63.040455 368.67203 2.3341274e-38
249.51906 -60.856724 355.90115 1.5707878e-38
249.35522 -60.649227 354.68768 1.5707878e-38
-129.08788 -61.915024 366.23834 2.3341274e-38
-115.20575 -61.697807 364.95349 2.3341274e-38
-109.55133 -61.697807 364.95349 2.3341274e-38
-97.492928 -61.670765 364.79352 2.3341274e-38
-96.037849 -61.643742 364.6337 4.4288725e-39
-91.241066 -61.267918 362.41061 1.0982862e-38
-86.539879 -60.923019 360.37048 1.0982862e-38
-76.569969 -60.765144 359.43661 1.6481351e-38
-69.638863 -60.791401 359.59192 2.3418052e-38
-64.095207 -60.817677 359.74738 2.3418052e-38
-50.813602 -60.765144 359.43661 1.6481351e-38
-49.421368 -60.765144 359.43661 1.6481351e-38
-36.875317 -60.738911 359.28143 1.6481351e-38
-35.483681 -60.738911 359.28143 1.6481351e-38
-29.930063 -60.765144 359.43661 1.6481351e-38
-23.665001 -60.765144 359.43661 1.6481351e-38
-10.438759 -60.765144 359.43661 1.6481351e-38
0.0030114658 -60.765144 359.43661 1.6481351e-38
9.7528753 -60.791401 359.59192 1.6481351e-38
9.7528753 -60.791401 359.59192 1.6481351e-38
15.324226 -60.791401 359.59192 1.6481351e-38
25.781649 -60.817677 359.74738 1.6481351e-38
26.478367 -60.817677 359.74738 1.6481351e-38
31.368967 -60.843979 359.90295 1.6481351e-38
42.576542 -60.923019 360.37048 1.6481351e-38
54.535759 -61.028728 360.99579 1.6481351e-38
65.807594 -61.10825 361.46616 1.6481351e-38
78.40847 -61.10825 361.46616 1.6481351e-38
78.40847 -61.10825 361.46616 1.6481351e-38
84.672134 -61.081722 361.30923 1.6481351e-38
94.50959 -61.10825 361.46616 1.6481351e-38
103.65524 -61.134804 361.62323 1.6481351e-38
103.65524 -61.134804 361.62323 1.6481351e-38
115.82136 -62.024204 366.88419 6.9718915e-39
118.05708 -62.078941 367.20795 2.3418052e-38
128.66783 -62.051559 367.04599 2.3341274e-38
129.43578 -62.078941 367.20795 2.3341274e-38
135.77638 -62.051559 367.04599 2.3341274e-38
142.23682 -62.078941 367.20795 2.3341274e-38
145.14554 -62.106342 367.37006 2.3341274e-38
157.24074 -62.106342 367.37006 2.3341274e-38
157.24074 -62.106342 367.37006 2.3341274e-38
161.50963 -62.106342 367.37006 2.3341274e-38
166.49001 -62.106342 367.37006 2.3341274e-38
176.29512 -62.051559 367.04599 2.3341274e-38
181.27983 -62.298851 368.50876 2.3341274e-38
192.69884 -62.298851 368.50876 2.3341274e-38
196.35422 -62.32645 368.67203 2.3341274e-38
197.86989 -62.354073 368.83542 2.3341274e-38
205.72742 -62.354073 368.83542 2.3341274e-38
209.57767 -62.437088 369.32648 2.3341274e-38
216.53819 -62.381721 368.99896 2.3341274e-38
229.91138 -62.520325 369.81882 2.3341274e-38
233.27576 -62.271278 368.34567 2.3341274e-38
239.59006 -62.243729 368.18271 2.3341274e-38
249.90453 -62.32645 368.67203 2.3418052e-38
250.30235 -59.860256 354.08405 1.5707878e-38
252.27017 -59.355175 351.09641 1.5707878e-38
-120.91319 -61.017765 365.11362 2.3341274e-38
-108.89228 -61.017765 365.11362 2.3341274e-38
-106.8178 -61.044544 365.27386 2.3341274e-38
-96.037849 -60.937557 364.6337 4.4288725e-39
-85.107178 -60.199028 360.21451 1.0982862e-38
-74.449455 -60.043091 359.28143 1.6481351e-38
-73.753639 -60.043091 359.28143 1.6481351e-38
-64.763931 -60.094982 359.59192 1.6481351e-38
-57.74984 -60.043091 359.28143 1.6481351e-38
-57.74984 -60.043091 359.28143 1.6481351e-38
-57.054024 -60.043091 359.28143 1.6481351e-38
-46.636894 -60.069027 359.43661 1.6481351e-38
-45.244659 -60.069027 359.43661 1.6481351e-38
-36.875317 -60.043091 359.28143 1.6481351e-38
-27.841709 -60.069027 359.43661 1.6481351e-38
-25.057236 -60.069027 359.43661 1.6481351e-38
-23.665001 -60.069027 359.43661 1.6481351e-38
-16.007702 -60.069027 359.43661 1.6481351e-38
-12.527112 -60.069027 359.43661 1.6481351e-38
-1.3892245 -60.069027 359.43661 1.6481351e-38
11.837017 -60.069027 359.43661 1.6481351e-38
13.931389 -60.094982 359.59192 1.6481351e-38
22.288414 -60.094982 359.59192 1.6481351e-38
26.478367 -60.120956 359.74738 1.6481351e-38
33.46003 -60.146957 359.90295 1.6481351e-38
35.566475 -60.172981 360.05865 1.6481351e-38
48.857883 -60.225094 360.37048 1.6481351e-38
55.934032 -60.32959 360.99579 1.6481351e-38
61.553833 -60.355774 361.15244 1.6481351e-38
72.076729 -60.381977 361.30923 1.6481351e-38
80.473663 -60.381977 361.30923 1.6481351e-38
85.334831 -60.355774 361.15244 1.6481351e-38
93.80954 -60.408203 361.46616 1.6481351e-38
99.409927 -60.408203 361.46616 1.6481351e-38
100.81003 -60.408203 361.46616 1.6481351e-38
114.70627 -61.098179 365.59479 6.9718915e-39
117.29415 -61.340706 367.04599 6.9718915e-39
128.72461 -61.367771 367.20795 2.3341274e-38
136.48724 -61.340706 367.04599 2.3341274e-38
145.79266 -61.367771 367.20795 2.3341274e-38
157.24074 -61.394859 367.37006 2.3341274e-38
166.49001 -61.394859 367.37006 2.3341274e-38
167.12772 -61.367771 367.20795 2.3341274e-38
174.23941 -61.367771 367.20795 2.3341274e-38
187.15508 -61.639751 368.83542 2.3341274e-38
197.06822 -61.612446 368.67203 2.3341274e-38
201.62021 -61.694439 369.16263 2.3341274e-38
201.62021 -61.694439 369.16263 2.3341274e-38
213.86929 -61.721817 369.32648 2.3341274e-38
215.72791 -61.639751 368.83542 2.3341274e-38
221.44247 -61.639751 368.83542 2.3341274e-38
232.56238 -61.557903 368.34567 2.3341274e-38
246.22543 -61.585163 368.50876 2.3418052e-38
250.72932 -60.434452 361.62323 1.5707878e-38
249.89848 -59.733635 357.42975 1.5707878e-38
249.30582 -59.427353 355.59702 1.5707878e-38
-125.48619 -60.46983 366.07724 2.3341274e-38
-122.48863 -60.390137 365.59479 2.3341274e-38
-109.55133 -60.284203 364.95349 2.3341274e-38
-106.01732 -60.284203 364.95349 2.3341274e-38
-101.06969 -60.284203 364.95349 2.3341274e-38
-96.786438 -60.257778 364.79352 2.3341274e-38
-84.33654 -59.449936 359.90295 1.0982862e-38
-75.145279 -59.347275 359.28143 1.6481351e-38
-65.432083 -59.372906 359.43661 1.6481351e-38
